ply
format ascii 1.0
element vertex 1380
property float x
property float y
property float z
end_header
0.542554 -1.525592 -1.302654
0.518009 -1.595377 -1.265915
0.456168 -1.454332 -1.207128
0.414470 -1.101060 -1.172728
0.402182 -1.024625 -1.162533
0.386254 -0.061295 -1.125398
0.378038 -1.009572 -1.135375
0.360038 -0.984307 -1.116749
0.014132 -0.020064 -0.033572
0.331146 -0.880806 -1.082699
0.331146 -0.880806 -1.082699
0.292227 -0.890558 -1.043922
0.286131 0.147317 -0.994981
0.287860 -0.938766 -1.038552
0.309118 -1.189135 -1.059067
0.258341 0.053621 -0.966811
0.261690 -0.891752 -1.010329
0.260264 -0.891309 -1.009244
0.259322 -0.901409 -1.007484
0.257478 -0.917327 -1.006260
0.245499 0.116959 -0.944370
0.245322 -0.867827 -0.994396
0.219479 -0.835461 -0.966242
0.219479 -0.835461 -0.966242
0.199872 -0.811095 -0.946788
0.199872 -0.811095 -0.946788
0.202175 -0.872386 -0.948501
0.194268 -0.759341 -0.937393
0.190483 -0.774545 -0.938559
0.179486 -0.176846 -0.894926
0.185804 -0.790485 -0.931921
0.171514 -0.125132 -0.880310
0.173803 -0.636186 -0.926579
0.133121 -0.238676 -0.853722
0.139875 -0.810803 -0.883211
0.132872 -0.715486 -0.874601
0.132872 -0.715486 -0.874601
0.122732 -0.113113 -0.827183
0.132541 -0.787008 -0.872725
0.115727 -0.058013 -0.812307
0.118535 -0.600598 -0.870086
0.119435 -0.714782 -0.858976
0.127292 -0.841200 -0.868433
0.111557 -0.136779 -0.818421
0.111557 -0.136779 -0.818421
0.111155 -0.136903 -0.818289
0.109829 -0.208538 -0.824410
0.112335 0.027374 -0.795332
0.113777 -0.734377 -0.853216
0.113777 -0.734377 -0.853216
0.105277 -0.048629 -0.799453
0.103959 0.116190 -0.772695
0.101711 0.035020 -0.783636
0.102722 0.096924 -0.776082
0.102722 0.096924 -0.776082
0.107609 -0.781079 -0.847873
0.106801 -0.781512 -0.846830
0.102540 -0.744962 -0.840678
0.179143 -1.504700 -1.064089
0.179143 -1.504700 -1.064089
0.096020 -0.709166 -0.835093
0.093506 -0.692122 -0.830960
0.094025 -0.754190 -0.834431
0.074759 -0.730570 -0.812339
0.083682 -0.881695 -0.823138
0.083682 -0.881695 -0.823138
0.068242 -0.733700 -0.806067
0.063503 -0.658171 -0.800576
0.063540 -0.689491 -0.801807
0.075476 -0.910635 -0.806427
0.084055 -1.005609 -0.804350
0.049552 -0.161677 -0.755176
0.061270 -0.779546 -0.797308
0.060121 -0.769354 -0.796692
0.060121 -0.769354 -0.796692
0.058004 -0.766834 -0.796583
0.050989 -0.710100 -0.788313
0.042264 -0.626487 -0.779495
0.050767 -0.795328 -0.785379
0.050767 -0.795328 -0.785379
0.052253 -0.866322 -0.782460
0.017651 -0.659024 -0.757342
0.016396 -0.004703 -0.699887
0.030680 -0.878893 -0.761947
0.013511 -0.746777 -0.748812
-0.064930 -0.660554 -0.670814
-0.071417 -0.602786 -0.666562
-0.072221 -0.602145 -0.666391
-0.065873 -0.730207 -0.662869
-0.066506 -0.789499 -0.653252
-0.075556 -0.724619 -0.649617
-0.094531 -0.383217 -0.636882
-0.075415 -0.736084 -0.647599
-0.078716 -0.705884 -0.648238
-0.087301 -0.617959 -0.647457
-0.078472 -0.723718 -0.645147
-0.088891 -0.606877 -0.646112
-0.089046 -0.625633 -0.643968
-0.101404 -0.344286 -0.625018
-0.102098 -0.305502 -0.620523
-0.082757 -0.734465 -0.640374
-0.096849 -0.569442 -0.638135
-0.095332 -0.620382 -0.637861
-0.088135 -0.707881 -0.637120
-0.088889 -0.707234 -0.636963
-0.109216 -0.359458 -0.617518
-0.098918 -0.660455 -0.630321
-0.101939 -0.034409 -0.574524
-0.101939 -0.034409 -0.574524
-0.102532 0.023583 -0.560931
-0.113969 0.018252 -0.548501
-0.134869 -0.511382 -0.598909
-0.131732 -0.572706 -0.604013
-0.152518 -0.368043 -0.579152
-0.151501 -0.484913 -0.585779
-0.153646 -0.427285 -0.581049
-0.155451 -0.269247 -0.564624
-0.156582 -0.268567 -0.564433
-0.156022 -0.220532 -0.557405
-0.159041 -0.262763 -0.560917
-0.161481 -0.280417 -0.559823
-0.161640 -0.207309 -0.549102
-0.167383 -0.283858 -0.555785
-0.171199 -0.265017 -0.548224
-0.174424 -0.204324 -0.536248
-0.180824 -0.476011 -0.554493
-0.180824 -0.476011 -0.554493
-0.177747 -0.512368 -0.547668
-0.183467 -0.201876 -0.526788
-0.168837 0.018039 -0.465961
-0.196581 -0.224879 -0.519591
-0.198465 -0.235272 -0.520638
-0.200780 -0.213928 -0.513082
-0.203815 -0.229688 -0.514440
-0.203815 -0.229688 -0.514440
-0.204313 -0.223943 -0.512806
-0.180477 -0.023661 -0.464688
-0.191976 -0.085549 -0.468367
-0.200330 -0.167523 -0.476139
-0.210583 -0.164702 -0.475321
-0.185752 -0.641253 -0.487573
-0.219840 -0.223347 -0.499273
-0.219840 -0.223347 -0.499273
-0.192823 -0.635571 -0.486318
-0.213300 -0.165451 -0.460637
-0.186729 0.054850 -0.426050
-0.221084 -0.423068 -0.487197
-0.209995 -0.153060 -0.446720
-0.189757 0.048896 -0.423253
-0.224738 -0.420707 -0.487019
-0.219109 -0.153308 -0.449093
-0.212402 -0.083296 -0.437813
-0.225598 -0.448163 -0.474874
-0.232078 -0.182735 -0.443870
-0.229381 -0.146119 -0.435515
-0.233420 -0.180330 -0.441303
-0.234315 -0.184488 -0.441955
-0.231865 -0.153559 -0.434897
-0.232205 -0.149904 -0.434313
-0.226036 -0.089924 -0.423351
-0.231139 -0.122033 -0.428564
-0.231139 -0.122033 -0.428564
-0.241996 -0.213703 -0.445202
-0.241491 -0.435648 -0.460192
-0.241491 -0.435648 -0.460192
-0.241669 -0.435539 -0.460184
-0.241669 -0.435539 -0.460184
-0.225104 -0.060064 -0.414484
-0.241826 -0.153807 -0.428268
-0.240610 -0.138687 -0.424474
-0.246817 -0.442468 -0.456956
-0.222884 -0.021084 -0.403422
-0.231936 -0.557430 -0.453831
-0.249557 -0.419304 -0.456121
-0.236276 -0.095809 -0.415446
-0.241865 -0.131225 -0.422446
-0.252172 -0.224353 -0.438822
-0.253130 -0.223706 -0.438823
-0.232302 -0.561600 -0.451927
-0.247540 -0.147506 -0.421779
-0.231153 -0.039343 -0.402723
-0.256099 -0.398181 -0.450611
-0.235634 -0.063941 -0.406165
-0.245964 -0.127110 -0.416781
-0.254349 -0.426178 -0.449744
-0.257691 -0.400515 -0.449348
-0.242233 -0.091958 -0.409211
-0.249993 -0.133121 -0.415456
-0.259925 -0.208058 -0.430539
-0.239608 -0.553701 -0.444991
-0.242461 -0.537738 -0.444936
-0.241649 -0.544515 -0.444911
-0.255829 -0.148397 -0.415828
-0.255829 -0.148397 -0.415828
-0.240228 -0.052918 -0.397732
-0.255372 -0.129990 -0.411609
-0.247413 -0.532124 -0.440485
-0.251688 -0.097042 -0.404238
-0.261660 -0.154228 -0.413978
-0.261660 -0.154228 -0.413978
-0.249830 -0.533557 -0.437538
-0.255576 -0.107363 -0.404630
-0.237294 -0.009749 -0.385675
-0.247509 -0.546272 -0.436304
-0.260572 -0.134240 -0.409673
-0.241253 -0.029903 -0.388517
-0.266769 -0.148568 -0.416101
-0.256054 -0.092257 -0.400330
-0.256054 -0.092257 -0.400330
-0.225922 0.058108 -0.370320
-0.241696 -0.020470 -0.384390
-0.258575 -0.095522 -0.399452
-0.267279 -0.132460 -0.404378
-0.250181 -0.058865 -0.384349
-0.271448 -0.149466 -0.404912
-0.269803 -0.134723 -0.402861
-0.263186 -0.095045 -0.395380
-0.275074 -0.155009 -0.404362
-0.265037 -0.092084 -0.393148
-0.258293 -0.047622 -0.382734
-0.272685 -0.117086 -0.393687
-0.277280 -0.141956 -0.398597
-0.263905 -0.041836 -0.381799
-0.243847 0.031515 -0.361829
-0.263100 -0.048778 -0.379578
-0.259186 0.001803 -0.360673
-0.259313 0.014244 -0.354616
-0.255998 0.029543 -0.349854
-0.253918 0.045242 -0.345743
-0.266644 -0.001487 -0.356579
-0.319573 -0.352319 -0.421040
-0.324626 -0.272184 -0.415393
-0.274215 -0.004832 -0.350655
-0.291391 -0.494439 -0.398519
-0.271611 0.007453 -0.346778
-0.329465 -0.238741 -0.407431
-0.329465 -0.238741 -0.407431
-0.265025 0.047013 -0.334236
-0.329927 -0.343262 -0.409894
-0.329927 -0.343262 -0.409894
-0.263972 0.055554 -0.330485
-0.340075 -0.269493 -0.399961
-0.273624 0.042187 -0.325647
-0.279696 0.022577 -0.329907
-0.279696 0.022577 -0.329907
-0.279696 0.022577 -0.329907
-0.311066 -0.461215 -0.383723
-0.287471 0.007623 -0.331210
-0.276087 0.041466 -0.321883
-0.274547 0.049309 -0.319193
-0.285318 0.015699 -0.327282
-0.285318 0.015699 -0.327282
-0.323452 -0.432340 -0.385887
-0.323452 -0.432340 -0.385887
-0.336792 -0.389891 -0.389089
-0.354825 -0.281065 -0.386218
-0.320769 -0.076424 -0.340439
-0.287279 0.035201 -0.314206
-0.288028 0.035610 -0.312507
-0.292130 0.036343 -0.307747
-0.357413 -0.320285 -0.375046
-0.299542 0.019185 -0.311680
-0.293087 0.038143 -0.305138
-0.293087 0.038143 -0.305138
-0.301826 0.017349 -0.310078
-0.301826 0.017349 -0.310078
-0.300124 0.021806 -0.308827
-0.287221 0.057846 -0.299501
-0.297539 0.029774 -0.305895
-0.298066 0.031154 -0.303875
-0.293069 0.050172 -0.296750
-0.362244 -0.124650 -0.349123
-0.297293 0.045014 -0.297464
-0.294376 0.050715 -0.295068
-0.308577 0.018245 -0.302926
-0.305377 0.026398 -0.300505
-0.331485 -0.028290 -0.314530
-0.321340 -0.004584 -0.305777
-0.304095 0.037170 -0.292843
-0.317239 0.007526 -0.301066
-0.328335 -0.016076 -0.308366
-0.361824 -0.376646 -0.356229
-0.330486 -0.017207 -0.306785
-0.336356 -0.026867 -0.308839
-0.417339 -0.028000 -0.383745
-0.356085 -0.399597 -0.345465
-0.328397 -0.005337 -0.299307
-0.144528 -0.035415 -0.128726
-0.363127 -0.384657 -0.345861
-0.357310 -0.060534 -0.316368
-0.366745 -0.376515 -0.346270
-0.357272 -0.056716 -0.313675
-0.357918 -0.402536 -0.340811
-0.357701 -0.054276 -0.311483
-0.394949 -0.193728 -0.343338
-0.364717 -0.387164 -0.341304
-0.342943 -0.023036 -0.300338
-0.392236 -0.260890 -0.346234
-0.396065 -0.202815 -0.343339
-0.374903 -0.347670 -0.343341
-0.396835 -0.218837 -0.343778
-0.394783 -0.256121 -0.345125
-0.364883 -0.388130 -0.337611
-0.367063 -0.384268 -0.337896
-0.367191 -0.384183 -0.337949
-0.348063 -0.024314 -0.297960
-0.384290 -0.320427 -0.340089
-0.369842 -0.380594 -0.335242
-0.401557 -0.226576 -0.340229
-0.393054 -0.121149 -0.325022
-0.366530 -0.390839 -0.331576
-0.366530 -0.390839 -0.331576
-0.399395 -0.148225 -0.330129
-0.398029 -0.134583 -0.326797
-0.360029 -0.037849 -0.299235
-0.373305 -0.375938 -0.331731
-0.403609 -0.242676 -0.337076
-0.407427 -0.183972 -0.333343
-0.403367 -0.138434 -0.325234
-0.408123 -0.168995 -0.329655
-0.371944 -0.052672 -0.301338
-0.402711 -0.129320 -0.322896
-0.408466 -0.164885 -0.328499
-0.374301 -0.376999 -0.327311
-0.374301 -0.376999 -0.327311
-0.410759 -0.183330 -0.330911
-0.409058 -0.231186 -0.333589
-0.400952 -0.277714 -0.333052
-0.404216 -0.260875 -0.333414
-0.401930 -0.273562 -0.333094
-0.409515 -0.223447 -0.333011
-0.407601 -0.240825 -0.333322
-0.405401 -0.255731 -0.333340
-0.411235 -0.177626 -0.329620
-0.320453 0.041097 -0.266746
-0.404727 -0.127532 -0.321498
-0.398808 -0.292464 -0.331142
-0.410370 -0.155893 -0.325909
-0.412360 -0.207467 -0.331173
-0.383466 -0.349408 -0.327145
-0.408765 -0.242354 -0.332091
-0.406624 -0.129810 -0.321597
-0.393837 -0.313001 -0.329555
-0.405580 -0.262881 -0.331640
-0.410059 -0.236657 -0.331681
-0.408825 -0.138054 -0.322949
-0.408825 -0.138054 -0.322949
-0.404118 -0.272677 -0.331243
-0.411602 -0.225954 -0.331320
-0.392243 -0.320379 -0.328387
-0.379445 -0.365125 -0.324749
-0.408250 -0.252254 -0.331293
-0.390515 -0.079460 -0.307814
-0.340574 -0.425977 -0.300480
-0.340574 -0.425977 -0.300480
-0.414645 -0.182003 -0.328173
-0.414646 -0.200446 -0.329849
-0.414407 -0.173562 -0.327352
-0.381004 -0.361178 -0.324437
-0.381004 -0.361178 -0.324437
-0.386697 -0.342100 -0.325959
-0.388572 -0.073640 -0.305639
-0.385797 -0.345441 -0.325429
-0.416299 -0.184459 -0.327861
-0.410894 -0.133874 -0.320802
-0.412346 -0.140427 -0.321978
-0.412346 -0.140427 -0.321978
-0.398933 -0.302180 -0.328014
-0.408597 -0.121368 -0.318039
-0.414536 -0.146938 -0.322805
-0.321060 0.042623 -0.261249
-0.388565 -0.340120 -0.324198
-0.379728 -0.369828 -0.321391
-0.379728 -0.369828 -0.321391
-0.400491 -0.300081 -0.326774
-0.395656 -0.081202 -0.306232
-0.410460 -0.116600 -0.315599
-0.411808 -0.121164 -0.316477
-0.413529 -0.126192 -0.317501
-0.415491 -0.132852 -0.318819
-0.399715 -0.307231 -0.324736
-0.420951 -0.183492 -0.325637
-0.421974 -0.195459 -0.325837
-0.421769 -0.152250 -0.320968
-0.421698 -0.147067 -0.320071
-0.418606 -0.236164 -0.325719
-0.396101 -0.325506 -0.320516
-0.419264 -0.238918 -0.325550
-0.424095 -0.204770 -0.324797
-0.423674 -0.208919 -0.324949
-0.420222 -0.232487 -0.324841
-0.419477 -0.123393 -0.315006
-0.426135 -0.178971 -0.322365
-0.386165 -0.360346 -0.315999
-0.425988 -0.151730 -0.319358
-0.426485 -0.196392 -0.323304
-0.426114 -0.202347 -0.323573
-0.426374 -0.149183 -0.318675
-0.425489 -0.141891 -0.317457
-0.415363 -0.266269 -0.322212
-0.428882 -0.189141 -0.321961
-0.428207 -0.144920 -0.316881
-0.429976 -0.198325 -0.321637
-0.340418 0.021546 -0.259816
-0.340418 0.021546 -0.259816
-0.391519 -0.350006 -0.313005
-0.424139 -0.113412 -0.310551
-0.387082 -0.361805 -0.310602
-0.413724 -0.277719 -0.317356
-0.416980 -0.272185 -0.318442
-0.414016 -0.282945 -0.317721
-0.414016 -0.282945 -0.317721
-0.394448 -0.345349 -0.310777
-0.411015 -0.296746 -0.315657
-0.413425 -0.291646 -0.314585
-0.417150 -0.081338 -0.299285
-0.393357 -0.351041 -0.308281
-0.414623 -0.288976 -0.314078
-0.415630 -0.289183 -0.312191
-0.416706 -0.286720 -0.312314
-0.353617 0.010571 -0.256618
-0.419846 -0.283716 -0.309849
-0.420158 -0.283645 -0.309640
-0.415747 -0.295868 -0.307825
-0.399017 -0.039659 -0.279457
-0.365252 -0.388543 -0.282316
-0.419353 -0.287821 -0.307468
-0.420645 -0.284381 -0.307855
-0.399211 -0.343235 -0.301004
-0.404305 -0.330558 -0.302581
-0.450449 -0.168656 -0.312240
-0.363187 0.003723 -0.255271
-0.450639 -0.180432 -0.311741
-0.422702 -0.285069 -0.303895
-0.455827 -0.141379 -0.308343
-0.405408 -0.331936 -0.297347
-0.451188 -0.198513 -0.309935
-0.457571 -0.143247 -0.308100
-0.457382 -0.139307 -0.307628
-0.398920 -0.343595 -0.293429
-0.459021 -0.160626 -0.310021
-0.409681 -0.323067 -0.296832
-0.458423 -0.130604 -0.305938
-0.436923 -0.250112 -0.304995
-0.442533 -0.234453 -0.306395
-0.459498 -0.135369 -0.306547
-0.445445 -0.226074 -0.306720
-0.437933 -0.072817 -0.290756
-0.407759 -0.327475 -0.295192
-0.407759 -0.327475 -0.295192
-0.457364 -0.116052 -0.303467
-0.424723 -0.283409 -0.299934
-0.424723 -0.283409 -0.299934
-0.460760 -0.131588 -0.305532
-0.460760 -0.131588 -0.305532
-0.427611 -0.056023 -0.283618
-0.436705 -0.068845 -0.288720
-0.400871 -0.340998 -0.290907
-0.461817 -0.134123 -0.305889
-0.452104 -0.208450 -0.307037
-0.453167 -0.203736 -0.307171
-0.458873 -0.180834 -0.307972
-0.460744 -0.123218 -0.303953
-0.446897 -0.225700 -0.305443
-0.461648 -0.125385 -0.304190
-0.438041 -0.250995 -0.302731
-0.438041 -0.250995 -0.302731
-0.455005 -0.198998 -0.307010
-0.449237 -0.219472 -0.305861
-0.460652 -0.177163 -0.307527
-0.463371 -0.160120 -0.307312
-0.454433 -0.203201 -0.306385
-0.462115 -0.120825 -0.303302
-0.437229 -0.255291 -0.301854
-0.433655 -0.265139 -0.300867
-0.451950 -0.212386 -0.305736
-0.449442 -0.220548 -0.305114
-0.431854 -0.269790 -0.300197
-0.427249 -0.280209 -0.298373
-0.428676 -0.276127 -0.298658
-0.436255 -0.062317 -0.285319
-0.465482 -0.129986 -0.304507
-0.434225 -0.264841 -0.299747
-0.413800 -0.315126 -0.292956
-0.465896 -0.156636 -0.306493
-0.456789 -0.200610 -0.305491
-0.441296 -0.246311 -0.301331
-0.417949 -0.306691 -0.294087
-0.418908 -0.302761 -0.294081
-0.427397 -0.049973 -0.278664
-0.435108 -0.058129 -0.282808
-0.642590 -0.083243 -0.418420
-0.430577 -0.052491 -0.279848
-0.462263 -0.097561 -0.297499
-0.441440 -0.249425 -0.299431
-0.448698 -0.230214 -0.300989
-0.380497 -0.364399 -0.271571
-0.442038 -0.250935 -0.297604
-0.412256 -0.030089 -0.265751
-0.423618 -0.039286 -0.271039
-0.431104 -0.046169 -0.275103
-0.422580 -0.299435 -0.289804
-0.406560 -0.023608 -0.260909
-0.418540 -0.314118 -0.284449
-0.415017 -0.028711 -0.263571
-0.467313 -0.089727 -0.293211
-0.467657 -0.089771 -0.293306
-0.454523 -0.065092 -0.284184
-0.417860 -0.029615 -0.263416
-0.430830 -0.282616 -0.289067
-0.423433 -0.309143 -0.285307
-0.424432 -0.306513 -0.285253
-0.444243 -0.051387 -0.276882
-0.483195 -0.125552 -0.302443
-0.483195 -0.125552 -0.302443
-0.445539 -0.059580 -0.276733
-0.482629 -0.149983 -0.303297
-0.412721 -0.024184 -0.258894
-0.468788 -0.189047 -0.298475
-0.065539 -0.026749 -0.037846
-0.446816 -0.247001 -0.291621
-0.459443 -0.062930 -0.283443
-0.434337 -0.046829 -0.269026
-0.485731 -0.136056 -0.302395
-0.448085 -0.244302 -0.291420
-0.484544 -0.148651 -0.302586
-0.426790 -0.291623 -0.284248
-0.451161 -0.053371 -0.277539
-0.398331 -0.012014 -0.249444
-0.471884 -0.076626 -0.289479
-0.411004 -0.021281 -0.255839
-0.488142 -0.123886 -0.301408
-0.448789 -0.243307 -0.290568
-0.485216 -0.152190 -0.302156
-0.485216 -0.152190 -0.302156
-0.417276 -0.311648 -0.279802
-0.428592 -0.287287 -0.283692
-0.462981 -0.063148 -0.283189
-0.418437 -0.308927 -0.279738
-0.430687 -0.284569 -0.284273
-0.488905 -0.132081 -0.301678
-0.487732 -0.140708 -0.301701
-0.431298 -0.284255 -0.284397
-0.425970 -0.294082 -0.282369
-0.489430 -0.119720 -0.300645
-0.489430 -0.119720 -0.300645
-0.433029 -0.042567 -0.265655
-0.433029 -0.042567 -0.265655
-0.416716 -0.024348 -0.257133
-0.280535 0.025615 -0.181232
-0.450664 -0.049179 -0.274670
-0.413026 -0.021119 -0.254651
-0.454976 -0.052509 -0.276915
-0.454976 -0.052509 -0.276915
-0.488037 -0.150496 -0.301213
-0.491957 -0.133001 -0.301119
-0.491957 -0.133001 -0.301119
-0.424063 -0.297263 -0.279302
-0.427922 -0.290989 -0.280915
-0.427922 -0.290989 -0.280915
-0.490710 -0.143042 -0.300960
-0.451432 -0.047508 -0.273756
-0.392531 -0.006997 -0.242757
-0.392531 -0.006997 -0.242757
-0.442539 -0.040353 -0.268478
-0.442539 -0.040353 -0.268478
-0.489481 -0.150448 -0.300531
-0.377994 -0.364203 -0.257011
-0.485134 -0.084171 -0.292568
-0.485134 -0.084171 -0.292568
-0.475271 -0.070067 -0.286400
-0.416652 -0.312488 -0.275645
-0.423239 -0.299796 -0.278043
-0.394339 -0.343055 -0.264065
-0.401503 -0.011873 -0.245654
-0.405834 -0.327864 -0.269270
-0.423591 -0.024799 -0.255753
-0.424263 -0.297845 -0.276092
-0.452578 -0.043630 -0.270558
-0.421119 -0.303428 -0.274359
-0.461867 -0.049608 -0.275074
-0.436578 -0.275605 -0.279466
-0.420118 -0.305958 -0.272673
-0.498039 -0.091316 -0.294529
-0.498039 -0.091316 -0.294529
-0.323366 0.040353 -0.201506
-0.455331 -0.042177 -0.269351
-0.455331 -0.042177 -0.269351
-0.436554 -0.029409 -0.258899
-0.416513 -0.018498 -0.248530
-0.339445 0.026889 -0.209002
-0.422174 -0.301773 -0.271753
-0.451168 -0.249264 -0.283544
-0.457092 -0.051179 -0.267620
-0.456410 -0.240108 -0.284993
-0.456410 -0.240108 -0.284993
-0.417203 -0.310894 -0.269532
-0.375435 0.004672 -0.227150
-0.457968 -0.236823 -0.285273
-0.457968 -0.236823 -0.285273
-0.456544 -0.041168 -0.268623
-0.460986 -0.230881 -0.286148
-0.444633 -0.032975 -0.261673
-0.347486 0.021292 -0.212138
-0.414952 -0.016337 -0.246450
-0.399171 -0.007911 -0.238436
-0.450098 -0.035974 -0.264260
-0.373612 0.005748 -0.225292
-0.382775 0.000984 -0.229975
-0.410713 -0.014341 -0.244000
-0.459919 -0.041877 -0.269099
-0.432434 -0.284207 -0.274410
-0.432434 -0.284207 -0.274410
-0.458892 -0.047240 -0.267290
-0.351160 0.018798 -0.213440
-0.389393 -0.346852 -0.254631
-0.365726 0.010135 -0.220564
-0.466635 -0.222090 -0.285047
-0.409653 -0.012799 -0.242438
-0.508266 -0.092021 -0.294203
-0.508266 -0.092021 -0.294203
-0.415385 -0.313584 -0.266365
-0.506988 -0.093771 -0.293522
-0.462238 -0.041343 -0.268803
-0.442812 -0.030020 -0.258696
-0.423665 -0.019599 -0.248765
-0.345137 0.022202 -0.208602
-0.345137 0.022202 -0.208602
-0.480258 -0.194438 -0.289171
-0.350767 0.018465 -0.211366
-0.431432 -0.022956 -0.251974
-0.431432 -0.022956 -0.251974
-0.421618 -0.018233 -0.246972
-0.465469 -0.042092 -0.269350
-0.483645 -0.188439 -0.289939
-0.474437 -0.206560 -0.286758
-0.512853 -0.108692 -0.297052
-0.463539 -0.227738 -0.282924
-0.386490 -0.000794 -0.228381
-0.386490 -0.000794 -0.228381
-0.458868 -0.237008 -0.280884
-0.473396 -0.045025 -0.272009
-0.368543 0.008103 -0.218869
-0.468624 -0.041968 -0.269390
-0.468624 -0.041968 -0.269390
-0.465108 -0.225201 -0.282398
-0.514882 -0.116107 -0.297121
-0.452929 -0.038140 -0.259169
-0.460446 -0.234175 -0.280258
-0.472853 -0.043245 -0.270617
-0.337889 0.025147 -0.202473
-0.397981 -0.005985 -0.232362
-0.378541 0.003152 -0.222644
-0.513816 -0.127310 -0.296469
-0.347553 0.018362 -0.206682
-0.488055 -0.152030 -0.280703
-0.393601 -0.003872 -0.229439
-0.496417 -0.167863 -0.290879
-0.496417 -0.167863 -0.290879
-0.329890 0.029603 -0.197263
-0.485299 -0.045927 -0.276298
-0.481981 -0.046883 -0.273918
-0.486918 -0.050201 -0.276383
-0.511610 -0.136508 -0.295298
-0.477604 -0.043625 -0.271282
-0.481888 -0.042727 -0.274179
-0.380257 0.002089 -0.222293
-0.400894 -0.006855 -0.232529
-0.433262 -0.282574 -0.268072
-0.397222 -0.195872 -0.240222
-0.481913 -0.045242 -0.272773
-0.461724 -0.232616 -0.278358
-0.357540 0.013352 -0.210274
-0.503596 -0.156345 -0.292026
-0.499402 -0.164436 -0.290615
-0.450376 -0.254439 -0.274080
-0.428964 -0.289690 -0.265133
-0.410414 -0.010158 -0.235950
-0.489840 -0.149654 -0.277878
-0.461052 -0.234027 -0.277083
-0.461052 -0.234027 -0.277083
-0.454737 -0.029584 -0.257798
-0.494393 -0.048281 -0.278447
-0.467840 -0.221810 -0.279055
-0.508692 -0.148822 -0.292582
-0.390682 -0.002060 -0.225563
-0.457626 -0.240651 -0.275292
-0.462308 -0.231931 -0.276781
-0.452764 -0.249881 -0.273508
-0.479327 -0.040515 -0.269195
-0.432049 -0.284434 -0.265066
-0.470805 -0.035977 -0.264623
-0.525964 -0.085107 -0.294526
-0.493000 -0.047870 -0.275823
-0.515364 -0.200549 -0.298673
-0.461140 -0.234201 -0.275668
-0.359600 0.011448 -0.209074
-0.482922 -0.214175 -0.284268
-0.512313 -0.144773 -0.292674
-0.467440 -0.222758 -0.277566
-0.464391 -0.228465 -0.276480
-0.451849 -0.251822 -0.271791
-0.503678 -0.052763 -0.280158
-0.464514 -0.031378 -0.260011
-0.430187 -0.287597 -0.262840
-0.698396 -0.006025 -0.394826
-0.500367 -0.049288 -0.277707
-0.500367 -0.049288 -0.277707
-0.355371 0.012241 -0.205293
-0.504965 -0.051389 -0.279654
-0.504965 -0.051389 -0.279654
-0.364519 0.008273 -0.209687
-0.499140 -0.047258 -0.276324
-0.425539 -0.295249 -0.259924
-0.363150 0.008807 -0.208834
-0.436753 -0.276094 -0.264193
-0.455299 -0.026289 -0.254171
-0.476909 -0.035310 -0.264721
-0.465431 -0.030101 -0.258854
-0.524174 -0.065574 -0.289053
-0.524174 -0.065574 -0.289053
-0.534002 -0.081177 -0.294737
-0.452236 -0.249116 -0.267952
-0.512577 -0.149685 -0.290045
-0.348311 0.014461 -0.200430
-0.513415 -0.053360 -0.282053
-0.513415 -0.053360 -0.282053
-0.464558 -0.228422 -0.273174
-0.516941 -0.055253 -0.283622
-0.474512 -0.032606 -0.262066
-0.465502 -0.028837 -0.257458
-0.470819 -0.217458 -0.274928
-0.470819 -0.217458 -0.274928
-0.466840 -0.224445 -0.273386
-0.481918 -0.035271 -0.265359
-0.501969 -0.044376 -0.275112
-0.469758 -0.218861 -0.274035
-0.353962 0.011054 -0.201799
-0.524911 -0.059347 -0.287337
-0.522134 -0.181023 -0.295129
-0.532510 -0.065186 -0.290396
-0.464012 -0.229483 -0.271305
-0.464012 -0.229483 -0.271305
-0.464012 -0.229483 -0.271305
-0.501276 -0.042481 -0.273787
-0.477715 -0.201038 -0.275552
-0.461603 -0.233328 -0.270255
-0.516913 -0.146067 -0.289442
-0.469501 -0.220007 -0.272782
-0.527142 -0.057757 -0.286678
-0.529901 -0.059718 -0.288015
-0.168173 -0.033872 -0.090363
-0.177685 -0.034215 -0.095123
-0.358723 -0.188248 -0.208804
-0.339716 0.016558 -0.193654
-0.427966 -0.290288 -0.256582
-0.463955 -0.229588 -0.269999
-0.520397 -0.142481 -0.289570
-0.539691 -0.066221 -0.292165
-0.453252 -0.247993 -0.265914
-0.530306 -0.056387 -0.286852
-0.549907 -0.062044 -0.294679
-0.544662 -0.101125 -0.297139
-0.470140 -0.219075 -0.271490
-0.544608 -0.070086 -0.294175
-0.541439 -0.064797 -0.292074
-0.540085 -0.062734 -0.291189
-0.549376 -0.081912 -0.297080
-0.549376 -0.081912 -0.297080
-0.465921 -0.225830 -0.269243
-0.388359 -0.340740 -0.237477
-0.537882 -0.058904 -0.289455
-0.467500 -0.223265 -0.269687
-0.439566 -0.270721 -0.259463
-0.430950 -0.285305 -0.256119
-0.549292 -0.071752 -0.295444
-0.536164 -0.053758 -0.287080
-0.536164 -0.053758 -0.287080
-0.506357 -0.038685 -0.271947
-0.550723 -0.068425 -0.294974
-0.508979 -0.161592 -0.282900
-0.508979 -0.161592 -0.282900
-0.516412 -0.151545 -0.285437
-0.543960 -0.062490 -0.291444
-0.539460 -0.054894 -0.288292
-0.520098 -0.146724 -0.286632
-0.520098 -0.146724 -0.286632
-0.556616 -0.077919 -0.297835
-0.556616 -0.077919 -0.297835
-0.549824 -0.104831 -0.296864
-0.549824 -0.104831 -0.296864
-0.525668 -0.139725 -0.288432
-0.525668 -0.139725 -0.288432
-0.472407 -0.224552 -0.272034
-0.435559 -0.276788 -0.255612
-0.469473 -0.219983 -0.268005
-0.469473 -0.219983 -0.268005
-0.530931 -0.046504 -0.282061
-0.472785 -0.214425 -0.269023
-0.558954 -0.076303 -0.298090
-0.453785 -0.247082 -0.262396
-0.518591 -0.149653 -0.285239
-0.441048 -0.267719 -0.257269
-0.511629 -0.159033 -0.282382
-0.560233 -0.070529 -0.297562
-0.554461 -0.101260 -0.297462
-0.554461 -0.101260 -0.297462
-0.561400 -0.084054 -0.299196
-0.570505 -0.086520 -0.303171
-0.463572 -0.229716 -0.265004
-0.494319 -0.182208 -0.275782
-0.489575 -0.189092 -0.274063
-0.465720 -0.225808 -0.265227
-0.526362 -0.141001 -0.286975
-0.474587 -0.211629 -0.268256
-0.511920 -0.159307 -0.281650
-0.564063 -0.082582 -0.299554
-0.552317 -0.204872 -0.307466
-0.491301 -0.186976 -0.273876
-0.518161 -0.151424 -0.283596
-0.527269 -0.140041 -0.286908
-0.459790 -0.236068 -0.262598
-0.467792 -0.222578 -0.265364
-0.701295 -0.053475 -0.375185
-0.554863 -0.088156 -0.295729
-0.563347 -0.090703 -0.299431
-0.433756 -0.279486 -0.252835
-0.567655 -0.078081 -0.300061
-0.561624 -0.095478 -0.298683
-0.523300 -0.146019 -0.284707
-0.566115 -0.089255 -0.299815
-0.566115 -0.089255 -0.299815
-0.526056 -0.142878 -0.285295
-0.562366 -0.097726 -0.298475
-0.562366 -0.097726 -0.298475
-0.559815 -0.102320 -0.297554
-0.559815 -0.102320 -0.297554
-0.535592 -0.132008 -0.288634
-0.535592 -0.132008 -0.288634
-0.521580 -0.148530 -0.283113
-0.517764 -0.153192 -0.281605
-0.511851 -0.160450 -0.279409
-0.565238 -0.095991 -0.298966
-0.437308 -0.272751 -0.252388
-0.515371 -0.156053 -0.280607
-0.508258 -0.164751 -0.277969
-0.503284 -0.170982 -0.276049
-0.503284 -0.170982 -0.276049
-0.494919 -0.182172 -0.272871
-0.492079 -0.186002 -0.271754
-0.492079 -0.186002 -0.271754
-0.484575 -0.196944 -0.268935
-0.484575 -0.196944 -0.268935
-0.528100 -0.141674 -0.284694
-0.474593 -0.211309 -0.265178
-0.526235 -0.143738 -0.284008
-0.477092 -0.207568 -0.266061
-0.481269 -0.201416 -0.267548
-0.470423 -0.217902 -0.263514
-0.554910 -0.112049 -0.294555
-0.451405 -0.250096 -0.256769
-0.567188 -0.099158 -0.298579
-0.549083 -0.119555 -0.291871
-0.497185 -0.179241 -0.272437
-0.571650 -0.092895 -0.300063
-0.467849 -0.221806 -0.261873
-0.575797 -0.115863 -0.303335
-0.534095 -0.123952 -0.285020
-0.455866 -0.241700 -0.257360
-0.459723 -0.235109 -0.258510
-0.562654 -0.106417 -0.296245
-0.551401 -0.118185 -0.291997
-0.560263 -0.120775 -0.296162
-0.539738 -0.174243 -0.290682
-0.532222 -0.138736 -0.284367
-0.554230 -0.128095 -0.293606
-0.544977 -0.125327 -0.289192
-0.453701 -0.244984 -0.255754
-0.758463 -0.104773 -0.397565
-0.493307 -0.184644 -0.269677
-0.556818 -0.113638 -0.293547
-0.486630 -0.022847 -0.253830
-0.537792 -0.132928 -0.286228
-0.537792 -0.132928 -0.286228
-0.487033 -0.192722 -0.267261
-0.487033 -0.192722 -0.267261
-0.507442 -0.167010 -0.274758
-0.470736 -0.216560 -0.261295
-0.482378 -0.199534 -0.265438
-0.495665 -0.181363 -0.270226
-0.465478 -0.225131 -0.259409
-0.526606 -0.031780 -0.272534
-0.460592 -0.233260 -0.257622
-0.477321 -0.206763 -0.263444
-0.499191 -0.176869 -0.271348
-0.541395 -0.172002 -0.290349
-0.544398 -0.126786 -0.288311
-0.550400 -0.120854 -0.290573
-0.479412 -0.203583 -0.263960
-0.479412 -0.203583 -0.263960
-0.521680 -0.150423 -0.279527
-0.521680 -0.150423 -0.279527
-0.455117 -0.242559 -0.255362
-0.488908 -0.190165 -0.267054
-0.502441 -0.172917 -0.272031
-0.502441 -0.172917 -0.272031
-0.543590 -0.127941 -0.287570
-0.496963 -0.179622 -0.269947
-0.536704 -0.135117 -0.284815
-0.521631 -0.150802 -0.279026
-0.461961 -0.230667 -0.257138
-0.452312 -0.188416 -0.249553
-0.475657 -0.209002 -0.261722
-0.480348 -0.202242 -0.263322
-0.464080 -0.227018 -0.257546
-0.491891 -0.186121 -0.267404
-0.491891 -0.186121 -0.267404
-0.480451 -0.202181 -0.263273
-0.460951 -0.232079 -0.256104
-0.525881 -0.146512 -0.279788
-0.468382 -0.219978 -0.258565
-0.477731 -0.205786 -0.261810
-0.477731 -0.205786 -0.261810
-0.496317 -0.180446 -0.268509
-0.457548 -0.237576 -0.254596
-0.473390 -0.211709 -0.260013
-0.548601 -0.164904 -0.290907
-0.451912 -0.247361 -0.252164
-0.533844 -0.138859 -0.281982
-0.470533 -0.216138 -0.258286
-0.482602 -0.198455 -0.262572
-0.520206 -0.152649 -0.276518
-0.494123 -0.183081 -0.266598
-0.517062 -0.156248 -0.275089
-0.497298 -0.178906 -0.267550
-0.453100 -0.245181 -0.251798
-0.495532 -0.181121 -0.266771
-0.435335 -0.273566 -0.244944
-0.484418 -0.195504 -0.262028
-0.536579 -0.136847 -0.281476
-0.536579 -0.136847 -0.281476
-0.452552 -0.245586 -0.250629
-0.505066 -0.169418 -0.269337
-0.469188 -0.217732 -0.256113
-0.566473 -0.111088 -0.292774
-0.500203 -0.175559 -0.267215
-0.461635 -0.229756 -0.253295
-0.475698 -0.207894 -0.258220
-0.451152 -0.247524 -0.249632
-0.482333 -0.198335 -0.260507
-0.482333 -0.198335 -0.260507
-0.573174 -0.105867 -0.295206
-0.535873 -0.137884 -0.280439
-0.523264 -0.149911 -0.275053
-0.469918 -0.215775 -0.255129
-0.469918 -0.215775 -0.255129
-0.535051 -0.138772 -0.279460
-0.503350 -0.171653 -0.267213
-0.539419 -0.134802 -0.280937
-0.436490 -0.270814 -0.242781
-0.545195 -0.129693 -0.282874
-0.467323 -0.219775 -0.253292
-0.467323 -0.219775 -0.253292
-0.462175 -0.227715 -0.251367
-0.462175 -0.227715 -0.251367
-0.469496 -0.215495 -0.253885
-0.451513 -0.245641 -0.247535
-0.458754 -0.233547 -0.249881
-0.458754 -0.233547 -0.249881
-0.458754 -0.233547 -0.249881
-0.446980 -0.252814 -0.245314
-0.463379 -0.225512 -0.250598
-0.450007 -0.247592 -0.245810
-0.516685 -0.157225 -0.270053
-0.460638 -0.229878 -0.249445
-0.453176 -0.242361 -0.246689
-0.437555 -0.267454 -0.240502
-0.588375 -0.028811 -0.291636
-0.530952 -0.142553 -0.274368
-0.456247 -0.236101 -0.246693
-0.650443 -0.044389 -0.320980
-0.447605 -0.250445 -0.243004
-0.462890 -0.225124 -0.248129
-0.267861 0.009838 -0.140788
-0.438299 -0.265227 -0.238931
-0.461445 -0.227211 -0.247042
-0.575091 -0.108032 -0.290118
-0.447971 -0.249072 -0.241734
-0.450834 -0.244776 -0.242846
-0.561019 -0.021908 -0.276431
-0.652546 -0.035903 -0.319369
-0.671425 -0.048437 -0.328974
-0.452990 -0.241081 -0.243413
-0.463429 -0.223373 -0.246928
-0.523003 -0.149630 -0.268952
-0.605519 -0.092067 -0.302027
-0.483985 -0.194347 -0.253971
-0.248845 0.011315 -0.130576
-0.579578 -0.107185 -0.290799
-0.470905 -0.211343 -0.248700
-0.507276 -0.164825 -0.261620
-0.444176 -0.254154 -0.238557
-0.473294 -0.207572 -0.248803
-0.437758 -0.265032 -0.236149
-0.544315 -0.131064 -0.275468
-0.492337 -0.181653 -0.255374
-0.576801 -0.109326 -0.288537
-0.698071 -0.048816 -0.338849
-0.522024 -0.149920 -0.266110
-0.704308 -0.046983 -0.341190
-0.484390 -0.191324 -0.251806
-0.218115 0.019811 -0.113997
-0.707612 -0.044893 -0.342421
-0.702574 -0.035892 -0.339159
-0.557778 -0.121348 -0.279919
-0.451188 -0.242247 -0.239791
-0.466078 -0.217700 -0.244790
-0.444626 -0.251901 -0.237122
-0.271222 0.001139 -0.139171
-0.566521 -0.115590 -0.283112
-0.447609 -0.247773 -0.238181
-0.717515 -0.039992 -0.345828
-0.525261 -0.146512 -0.266345
-0.525261 -0.146512 -0.266345
-0.504811 -0.166357 -0.258495
-0.632110 -0.022783 -0.305310
-0.712418 -0.050457 -0.344062
-0.499846 -0.171786 -0.256348
-0.463390 -0.221386 -0.243195
-0.468575 -0.213057 -0.244887
-0.232984 0.004938 -0.120728
-0.442091 -0.255778 -0.235403
-0.552519 -0.124838 -0.276657
-0.465168 -0.218454 -0.243543
-0.460103 -0.226675 -0.241775
-0.460103 -0.226675 -0.241775
-0.482069 -0.193339 -0.249459
-0.474611 -0.204341 -0.246804
-0.575949 -0.110045 -0.286128
-0.492698 -0.179650 -0.253255
-0.488264 -0.185288 -0.251587
-0.521242 -0.149498 -0.263987
-0.215404 -0.010906 -0.110042
-0.602347 -0.096321 -0.296446
-0.534657 -0.137949 -0.268449
-0.359125 -0.008088 -0.178114
-0.748512 -0.036831 -0.357928
-0.518002 -0.152554 -0.261569
-0.230801 -0.010866 -0.116910
-0.463809 -0.219418 -0.241465
-0.737905 -0.050106 -0.353492
-0.502764 -0.167612 -0.255341
-0.186555 0.014053 -0.096893
-0.405065 -0.304724 -0.218811
-0.450700 -0.241006 -0.236388
-0.230173 0.002771 -0.118043
-0.440966 -0.011594 -0.214549
-0.440966 -0.011594 -0.214549
-0.495510 -0.174259 -0.251906
-0.622589 -0.088100 -0.303269
-0.449054 -0.243626 -0.235320
-0.777892 -0.041804 -0.369922
-0.767757 -0.045381 -0.365579
-0.445436 -0.248633 -0.233589
-0.607749 -0.094452 -0.296534
-0.663506 -0.073878 -0.320228
-0.441012 -0.255997 -0.231931
-0.638192 -0.082591 -0.309298
-0.664336 -0.073804 -0.320492
-0.522314 -0.145726 -0.261350
-0.517491 -0.150215 -0.259381
-0.407709 -0.300226 -0.218537
-0.647318 -0.079408 -0.312963
-0.647517 -0.079377 -0.313048
-0.512034 -0.155144 -0.257105
-0.452162 -0.238396 -0.235585
-0.460741 -0.223156 -0.238317
-0.782807 -0.044045 -0.371570
-0.782807 -0.044045 -0.371570
-0.468776 -0.210317 -0.241047
-0.474618 -0.201899 -0.242898
-0.908094 -0.019450 -0.425660
-0.575736 -0.109412 -0.281688
-0.479667 -0.193235 -0.243981
-0.824285 -0.038311 -0.388962
-0.490677 -0.178125 -0.247830
-0.454064 -0.234463 -0.234874
-0.795241 -0.045428 -0.376002
-0.475632 -0.198983 -0.242164
-0.474490 -0.200920 -0.241500
-0.474490 -0.200920 -0.241500
-0.468482 -0.209643 -0.239318
-0.352382 -0.010706 -0.171154
-0.758503 -0.053612 -0.359330
-0.750341 -0.055402 -0.355583
-0.585405 -0.104265 -0.284279
-0.585405 -0.104265 -0.284279
-0.791835 -0.048508 -0.373593
-0.384185 -0.011461 -0.184998
-0.723474 -0.014113 -0.339431
-0.521811 -0.144078 -0.258038
-0.660154 -0.076528 -0.315681
-0.639304 -0.082827 -0.306682
-0.442036 -0.251882 -0.228966
-0.509763 -0.155765 -0.253260
-0.759789 -0.054444 -0.359117
-0.813079 -0.045648 -0.382609
-0.452025 -0.236955 -0.232548
-0.571558 -0.110676 -0.277741
-0.708077 -0.064603 -0.336276
-0.708077 -0.064603 -0.336276
-0.607308 -0.094493 -0.292664
-0.750687 -0.056387 -0.354858
-0.504672 -0.160581 -0.250980
-0.793338 -0.049270 -0.373600
-0.793338 -0.049270 -0.373600
-0.425667 -0.012010 -0.203213
-0.512933 -0.151445 -0.253840
-0.456020 -0.229549 -0.233287
-0.678795 -0.071723 -0.322870
-0.587748 -0.102517 -0.283827
-0.759845 -0.055268 -0.358351
-0.454644 -0.231794 -0.232646
-0.523226 -0.142560 -0.257471
-0.950602 -0.029642 -0.442921
-0.707859 -0.065224 -0.335206
-0.707859 -0.065224 -0.335206
-0.496028 -0.012135 -0.234524
-0.656240 -0.077688 -0.312647
-0.465205 -0.213295 -0.235857
-0.752176 -0.011751 -0.350777
-0.472949 -0.200814 -0.238361
-0.472949 -0.200814 -0.238361
-0.463168 -0.216304 -0.234967
-0.450538 -0.239525 -0.230615
-0.439341 -0.254945 -0.226419
-0.640147 -0.080719 -0.305162
-0.661744 -0.076247 -0.314539
-1.048298 -0.022446 -0.485884
-0.605736 -0.011575 -0.283670
-0.682986 -0.070939 -0.323568
-0.501607 -0.162795 -0.248116
-1.105468 -0.016021 -0.511048
-1.105468 -0.016021 -0.511048
-0.699514 -0.067283 -0.330673
-0.809176 -0.048936 -0.378907
-0.472281 -0.201026 -0.237289
-0.756691 -0.056729 -0.355559
-0.407639 -0.296735 -0.213435
-0.407639 -0.296735 -0.213435
-0.464994 -0.212619 -0.234603
-0.464994 -0.212619 -0.234603
-0.496605 -0.167709 -0.245743
-1.091288 -0.010052 -0.503585
-1.091288 -0.010052 -0.503585
-0.803235 -0.009762 -0.372562
-0.470742 -0.202864 -0.236040
-0.468120 -0.207042 -0.235090
-0.475637 -0.194711 -0.237521
-0.754015 -0.057469 -0.353601
-0.663879 -0.075649 -0.314072
-0.592787 -0.099150 -0.283496
-0.811469 -0.049453 -0.378914
-0.585819 -0.102192 -0.280482
-1.335308 -0.009624 -0.613503
-0.404996 -0.299456 -0.211428
-0.814058 -0.049249 -0.379947
-0.464840 -0.211384 -0.233368
-0.473406 -0.197901 -0.236295
-0.453329 -0.231675 -0.229460
-0.633229 -0.084001 -0.300122
-0.771682 -0.054272 -0.361038
-0.575780 -0.106355 -0.275564
-0.465156 -0.210131 -0.232937
-0.494588 -0.168713 -0.243109
-0.519360 0.002464 -0.246061
-0.567134 -0.110306 -0.271201
-0.578629 -0.104548 -0.275956
-0.570505 -0.108448 -0.272564
-0.459042 -0.220391 -0.229975
-0.459042 -0.220391 -0.229975
-0.708623 -0.065202 -0.331735
-0.662756 -0.075310 -0.311585
-0.739670 -0.059898 -0.344866
-0.441723 -0.248325 -0.223301
-1.479595 -0.013105 -0.676487
-0.967810 -0.038408 -0.446007
-0.792612 -0.052405 -0.367389
-3.685569 0.036023 -1.673043
-0.465777 -0.206300 -0.230318
-0.678504 -0.070532 -0.316373
-0.994656 -0.035006 -0.456933
-0.418719 -0.278276 -0.212970
-0.450623 -0.232677 -0.224637
-1.082836 -0.030018 -0.495396
-0.997768 -0.034770 -0.457181
1.638999 -0.053710 0.737674
-0.686763 -0.067836 -0.318551
-0.442069 -0.245217 -0.220407
-0.719925 -0.061687 -0.332855
-1.128037 -0.007909 -0.518079
-0.439847 -0.248273 -0.219225
-0.440636 -0.246517 -0.219292
-0.440636 -0.246517 -0.219292
-1.000995 -0.001691 -0.455726
-1.000995 -0.001691 -0.455726
-0.462849 -0.208072 -0.226667
-0.481367 -0.178801 -0.232862
-0.484439 -0.174534 -0.233896
-0.500375 -0.156062 -0.239697
-0.479091 -0.182061 -0.231890
-0.475897 -0.187071 -0.230790
-0.473393 -0.191073 -0.229767
-0.720143 -0.060955 -0.331869
-0.720143 -0.060955 -0.331869
-0.489096 -0.167308 -0.235064
-0.467637 -0.199449 -0.227593
-0.517569 -0.079892 -0.235291
-0.471275 -0.194544 -0.228779
-0.620034 -0.080298 -0.287365
-0.479686 -0.179796 -0.231177
-0.479686 -0.179796 -0.231177
-0.479686 -0.179796 -0.231177
-0.630012 -0.077099 -0.291623
-0.477733 -0.183032 -0.230505
-0.532111 -0.125960 -0.250900
-0.454804 -0.221120 -0.222714
-0.505805 -0.148801 -0.240643
-0.472486 -0.192309 -0.228582
-0.473827 -0.189070 -0.228858
-0.503263 -0.151159 -0.239459
-0.469541 -0.195945 -0.227397
-0.473849 -0.189025 -0.228823
-0.462251 -0.207369 -0.224788
-0.666486 -0.069005 -0.306974
-0.448851 -0.232368 -0.220343
-0.631824 -0.075792 -0.291608
-0.500852 -0.152668 -0.237795
-0.472218 -0.191342 -0.227608
-0.453158 -0.222936 -0.220926
-0.464163 -0.202206 -0.224534
-0.490446 -0.163724 -0.233475
-0.451052 -0.226347 -0.219792
-0.621964 -0.077301 -0.286119
-0.471492 -0.191507 -0.226558
-0.471492 -0.191507 -0.226558
-0.469741 -0.194580 -0.225921
-0.455968 -0.216254 -0.220789
-0.455968 -0.216254 -0.220789
-0.488541 -0.157685 -0.229438
-0.453582 -0.220714 -0.219924
-0.470298 -0.192594 -0.225425
-0.495383 -0.151298 -0.233109
-0.462957 -0.204869 -0.221700
-0.050000 -0.000037 -0.018935
-0.004215 -0.004003 0.001431
-0.456847 -0.216167 -0.219347
-1.294377 0.026786 -0.584263
-0.472188 -0.185323 -0.223515
-0.457549 -0.213769 -0.218761
-0.457549 -0.213769 -0.218761
-0.488110 -0.156158 -0.227439
-0.596293 -0.080616 -0.271485
-1.031711 -0.023443 -0.463739
-0.131949 0.006287 -0.053838
-1.343316 -0.005799 -0.602997
-0.634752 -0.001740 -0.276767
-1.091783 -0.013318 -0.489149
-0.463729 -0.062037 -0.203885
-0.585487 -0.082281 -0.265297
-0.998203 -0.017456 -0.446697
-0.580995 -0.083418 -0.262867
-0.525738 -0.116212 -0.240216
-0.717649 -0.021785 -0.317641
-0.877524 -0.025374 -0.392249
-0.877524 -0.025374 -0.392249
-0.875168 -0.025396 -0.391131
-0.463592 -0.197953 -0.218047
-0.463592 -0.197953 -0.218047
-1.237495 0.025908 -0.550796
-0.487616 -0.154674 -0.225511
-0.583246 -0.080807 -0.262987
-0.560552 -0.090935 -0.253456
-0.472493 -0.179428 -0.220129
-0.470299 -0.183302 -0.219280
-0.467911 -0.187449 -0.218394
-0.476701 -0.170989 -0.221111
-0.416609 -0.271199 -0.201123
-0.777398 -0.031246 -0.346236
-0.422942 -0.061219 -0.183729
-0.526576 -0.111321 -0.238778
-0.465503 -0.191552 -0.217067
-0.465503 -0.191552 -0.217067
-0.407516 -0.283747 -0.197514
-0.480353 -0.164025 -0.221540
-0.514304 -0.122060 -0.233787
-0.474255 -0.174012 -0.219469
-0.521555 -0.115893 -0.236512
-0.745115 -0.030589 -0.330753
-0.465772 -0.190310 -0.216643
-0.470008 -0.181533 -0.217771
-0.470008 -0.181533 -0.217771
-0.470491 -0.181307 -0.217918
-0.470491 -0.181307 -0.217918
-0.269991 0.028629 -0.110805
-0.460922 -0.200009 -0.214767
-0.472407 -0.111218 -0.211614
-0.470992 -0.178878 -0.217707
-0.467021 -0.186447 -0.216377
-0.226832 0.014786 -0.092262
-0.515838 -0.118931 -0.233252
-0.462127 -0.196599 -0.214569
-0.219662 0.011590 -0.088979
-0.565752 -0.083337 -0.252942
-0.519965 -0.114603 -0.234645
-0.461499 -0.196775 -0.214247
-0.192829 -0.014152 -0.078605
4.650581 0.845449 2.015119
-0.517412 -0.116157 -0.233068
-0.180485 -0.002596 -0.071854
-0.180485 -0.002596 -0.071854
-0.340146 -0.017955 -0.145264
-0.550715 -0.090016 -0.246078
-0.550715 -0.090016 -0.246078
-0.467110 -0.019045 -0.202669
-0.471198 -0.176713 -0.216566
-0.509892 -0.121865 -0.229807
-1.036877 0.009329 -0.458498
1.731167 0.275761 0.748097
-0.205886 0.000234 -0.082404
-0.544735 -0.021512 -0.237322
-0.209987 -0.010804 -0.085072
-0.445225 -0.019285 -0.191886
-0.271945 -0.015223 -0.113194
-0.237522 0.010380 -0.095438
-1.467550 0.088657 -0.647960
-0.472010 -0.172454 -0.215503
-0.206618 -0.008392 -0.083079
-0.547189 -0.022511 -0.238090
-0.223593 0.004780 -0.089493
-0.513519 -0.116509 -0.229973
-0.242440 0.009789 -0.097262
-0.506264 -0.122157 -0.226761
-0.477963 -0.020647 -0.206091
-0.223257 -0.002933 -0.089549
-0.622903 -0.029371 -0.272186
-0.459965 -0.196319 -0.210993
-0.546392 -0.087065 -0.241808
-0.467803 -0.178760 -0.213044
-0.458663 -0.199067 -0.210364
-0.299994 -0.014314 -0.124620
-0.234062 -0.006448 -0.094214
-0.296893 -0.014289 -0.123186
-0.546554 -0.024538 -0.236734
-0.546554 -0.024538 -0.236734
-0.470407 -0.173222 -0.213517
-0.470407 -0.173222 -0.213517
-0.609145 -0.034484 -0.265614
-0.459826 -0.195312 -0.210146
-0.458836 -0.197637 -0.209858
-0.572432 -0.027872 -0.248065
-0.507886 -0.117753 -0.225910
-0.600115 -0.039935 -0.261430
-0.458340 -0.021152 -0.195939
-0.541517 -0.086968 -0.238581
-0.498368 -0.023314 -0.214164
-0.583258 -0.032353 -0.252903
-0.452398 -0.103298 -0.200003
-0.464092 -0.183032 -0.210342
-0.458313 -0.196993 -0.208618
-0.457136 -0.199588 -0.208181
-0.585830 -0.036678 -0.254084
-0.518041 -0.105390 -0.228683
-0.459827 -0.193114 -0.208733
-0.458062 -0.195905 -0.207375
-0.459401 -0.191589 -0.207302
-0.464252 -0.180542 -0.208640
-0.464252 -0.180542 -0.208640
-0.480058 -0.149073 -0.213412
-0.530654 -0.086616 -0.231282
