ply
format ascii 1.0
element vertex 1230
property float x
property float y
property float z
end_header
-0.332270 -0.341736 -1.661335
-0.367656 -1.801684 -1.528851
-0.379810 -1.895077 -1.528452
-0.406974 -1.835231 -1.540027
-0.414601 -1.480151 -1.544137
-0.421174 -1.394904 -1.542284
-0.478936 -0.207376 -1.700410
-0.436253 -1.405912 -1.543133
-0.490340 -0.117144 -1.706246
-0.441583 -1.280200 -1.542890
-0.446639 -1.399862 -1.547889
-0.463229 -1.305856 -1.546817
-0.463229 -1.305856 -1.546817
-0.492029 -1.762298 -1.571856
-0.491204 -1.372167 -1.560347
-0.497302 -1.440638 -1.558843
-0.518942 -1.432055 -1.563500
-0.521003 -1.457996 -1.565798
-0.561090 -0.534165 -1.666299
-0.569154 -0.460688 -1.672842
-0.579559 -1.201947 -1.636126
-0.566850 -1.401520 -1.587325
-0.566850 -1.401520 -1.587325
-0.568509 -1.487181 -1.583804
-0.570600 -1.327977 -1.579132
-0.612509 -0.646286 -1.676200
-0.579618 -1.393309 -1.591457
-0.641147 -0.225047 -1.702272
-0.639128 -0.494751 -1.692877
-0.639128 -0.494751 -1.692877
-0.648610 -0.352074 -1.703364
-0.648843 -0.351604 -1.703190
-0.655896 -0.105010 -1.717572
-0.655896 -0.105010 -1.717572
-0.641367 -0.609854 -1.682481
-0.655410 -0.072201 -1.712447
-0.655430 -0.210796 -1.710702
-0.639420 -1.228217 -1.664954
-0.630969 -1.504559 -1.603763
-0.633117 -1.362108 -1.605336
-0.633117 -1.362108 -1.605336
-0.638857 -1.473054 -1.596303
-0.648825 -1.580864 -1.607135
-0.649575 -1.379882 -1.603317
-0.657879 -1.422146 -1.604773
-0.673081 -1.458725 -1.605021
-0.678485 -1.412758 -1.612451
-0.726837 -0.559324 -1.710956
-0.684325 -1.498904 -1.619250
-0.680994 -1.385872 -1.609195
-0.709470 -1.492382 -1.619961
-0.718899 -1.520819 -1.630479
-0.719849 -1.386410 -1.627330
-0.721919 -1.443980 -1.629428
-0.727418 -1.832326 -1.621134
-0.733902 -1.614407 -1.626629
-0.728436 -1.991898 -1.607686
-0.751893 -1.670722 -1.630720
-0.762104 -1.709926 -1.631586
-0.797312 -1.922766 -1.662820
-0.973089 -1.621344 -1.742468
-0.983399 -1.445878 -1.754723
-1.012940 -1.162275 -1.777486
-0.978534 -1.904509 -1.711962
-1.033221 -0.990932 -1.784183
-1.013678 -1.699567 -1.739244
-1.072183 -0.339906 -1.828515
-1.016093 -1.676646 -1.740822
-1.002376 -1.918268 -1.705856
-1.019082 -1.719655 -1.732530
-1.086646 -0.190445 -1.833452
-1.006536 -1.882290 -1.710691
-1.030889 -1.603599 -1.743741
-1.009238 -1.920748 -1.699922
-1.025300 -1.977306 -1.712918
-1.032798 -1.923410 -1.715219
-1.123551 -0.201017 -1.839404
-1.139718 -1.748881 -1.794869
-1.135910 -1.574522 -1.779613
-1.185954 -1.251401 -1.831568
-1.212173 -0.865427 -1.858451
-1.192825 -1.575163 -1.826559
-1.215780 -0.983266 -1.853044
-1.233991 -0.836025 -1.861527
-1.244097 -1.057035 -1.859923
-1.257373 -1.007083 -1.853921
-1.282372 -0.845496 -1.874510
-1.318539 -0.851106 -1.882461
-1.301555 -1.650373 -1.850756
-1.301555 -1.650373 -1.850756
-1.372679 -0.945452 -1.908295
-1.381250 -0.983953 -1.919176
-1.392310 -0.917852 -1.909445
-1.405114 -0.975905 -1.923524
-1.405114 -0.975905 -1.923524
-1.408633 -0.958837 -1.923943
-1.486850 -0.992332 -1.958162
-1.486850 -0.992332 -1.958162
-1.346308 -0.301286 -1.756062
-1.357152 -0.483770 -1.734562
-1.342812 -0.712419 -1.684394
-1.422938 -0.052453 -1.739597
-1.388612 -0.713843 -1.667920
-1.427871 -0.475597 -1.676092
-1.410231 -0.678706 -1.647506
-1.300910 -1.937006 -1.506227
-1.396028 -1.516705 -1.586523
-1.447961 -0.774344 -1.640266
-1.451582 -0.663254 -1.634772
-1.453704 -0.767677 -1.636313
-1.455961 -0.781355 -1.638370
-1.479443 -0.498536 -1.658736
-1.487067 -0.886855 -1.665957
-1.462710 -0.677636 -1.637946
-1.457008 -0.686246 -1.631156
-1.478328 -0.597324 -1.652280
-1.478328 -0.597324 -1.652280
-1.453992 -0.635089 -1.624787
-1.503027 -0.407611 -1.671061
-1.532407 -0.283683 -1.688112
-1.506483 -0.701683 -1.651904
-1.508050 -0.653796 -1.648289
-1.540000 -0.940581 -1.684012
-1.524567 -0.635796 -1.663287
-1.524651 -0.522563 -1.663348
-1.555745 -0.343889 -1.689931
-1.552546 -0.423587 -1.678599
-1.446851 -1.982422 -1.555955
-1.581043 -0.905997 -1.696578
-1.555057 -0.513998 -1.666946
-1.465971 -0.678277 -1.573163
-1.538895 -1.491824 -1.649008
-1.564209 -0.476203 -1.672613
0.139017 0.063026 0.143777
-1.558973 -0.647662 -1.661430
0.139366 0.063171 0.143968
-1.547117 -1.505623 -1.650550
-1.479216 -1.921026 -1.576893
-1.532053 -1.569498 -1.629050
-1.587500 -0.389202 -1.683817
-1.497599 -1.868351 -1.580155
-1.657925 -0.002240 -1.737611
-1.609558 -0.731679 -1.684926
-1.609558 -0.731679 -1.684926
-1.622429 -0.668706 -1.695101
-1.639794 -0.529589 -1.707378
-1.639794 -0.529589 -1.707378
-1.639523 -0.280508 -1.704519
-1.520601 -1.954645 -1.583979
-1.525095 -1.930890 -1.588015
-1.651598 -0.542669 -1.711027
-1.667585 -0.069080 -1.726235
-1.543885 -1.900761 -1.594596
-1.663375 -0.672403 -1.709280
-1.682770 -0.545850 -1.721302
-1.674276 -0.682234 -1.709210
-1.564648 -1.937353 -1.596633
-1.691310 -0.560496 -1.722623
-1.687115 -0.560438 -1.716716
-1.697298 -0.537648 -1.726408
-1.715146 -0.380336 -1.738978
-1.684373 -0.754675 -1.706094
-1.746018 -0.087659 -1.752505
-1.706771 -0.713786 -1.709135
-2.202064 -1.935140 -2.191240
-2.225829 -1.553324 -2.212178
-1.813412 -0.195843 -1.774712
-2.275474 -1.408431 -2.224253
-2.275474 -1.408431 -2.224253
-1.870342 -0.019304 -1.801478
-2.286899 -1.939446 -2.192730
-2.286899 -1.939446 -2.192730
-1.927088 -0.218219 -1.812969
-2.350671 -1.593176 -2.209695
-1.937589 -0.167139 -1.817827
-2.005186 0.043520 -1.851159
-1.849902 -2.106157 -1.690973
-2.062657 -0.093057 -1.850460
-2.062657 -0.093057 -1.850460
-2.062657 -0.093057 -1.850460
-2.501470 -1.727988 -2.226243
-2.099775 -0.157049 -1.866577
-2.094193 -0.005348 -1.859469
-2.105539 0.031550 -1.864702
-2.101453 -0.120201 -1.857586
-2.101453 -0.120201 -1.857586
-2.152182 -2.175028 -1.891192
-2.152182 -2.175028 -1.891192
-1.990072 -2.108709 -1.735084
-2.214120 -0.019901 -1.902539
-2.411938 -1.848433 -2.067402
-2.227402 -0.016278 -1.904067
-2.436036 -1.857843 -2.063820
-2.291338 -0.005356 -1.926850
-2.302717 -0.088616 -1.929619
-2.314524 0.006386 -1.931941
-2.314524 0.006386 -1.931941
-2.327827 -0.073435 -1.936445
-2.324709 -0.095768 -1.933491
-2.324709 -0.095768 -1.933491
-2.333891 -0.033084 -1.936996
-2.352806 -0.024078 -1.941968
-2.394839 0.077933 -1.963402
-2.445743 0.057757 -1.997949
-2.425633 0.085215 -1.977604
-2.440925 -0.039926 -1.977863
-2.436960 -0.082695 -1.974741
-2.474464 -0.323921 -1.982961
-2.471894 -0.199178 -1.972288
-2.509289 0.024664 -2.001867
-2.495645 -0.134533 -1.983875
-2.504447 -0.259509 -1.988804
-2.611825 -2.282730 -2.070022
-2.521558 -0.264887 -1.987155
-2.540473 -0.316537 -1.992680
-2.571349 -0.199743 -1.997545
-2.630250 -0.504923 -2.031444
-2.647094 -0.484516 -2.031257
-2.765047 -1.297835 -2.114741
-2.655510 -2.297766 -2.031291
-2.456712 -2.232748 -1.878689
-2.584757 -2.276672 -1.976114
-2.656783 -0.470794 -2.025893
-2.760069 -1.346751 -2.101509
-2.662099 -0.296345 -2.024939
-2.737658 -1.675085 -2.079722
-2.759320 -1.438487 -2.091693
-2.759846 -1.658065 -2.085718
-2.507929 -2.290601 -1.889448
-2.620874 -2.315654 -1.973470
-2.746564 -0.305125 -2.062015
-2.790498 -1.491341 -2.074964
-2.629748 -2.298208 -1.954576
-2.793257 -0.870589 -2.070872
-2.683760 -1.971916 -1.990282
-2.783014 -1.024337 -2.058442
-2.801447 -0.950863 -2.065806
-2.793491 -0.946860 -2.058303
-2.672232 -2.310628 -1.966628
-2.806135 -1.587561 -2.051562
-2.961848 0.103543 -2.153924
-2.613637 -2.306611 -1.903015
-2.822416 -0.973760 -2.051952
-2.737983 -2.336476 -1.989823
-2.839992 -0.924369 -2.058477
-2.814531 -1.149613 -2.040133
-2.592971 -2.260620 -1.878389
-2.817646 -1.125404 -2.036605
-2.849905 -1.248125 -2.058867
-2.871002 -0.920732 -2.068244
-2.843700 -1.209931 -2.047664
-2.827687 -1.523024 -2.035762
-2.839628 -1.482676 -2.044351
-2.824803 -1.578539 -2.030850
-2.895791 -0.940789 -2.080542
-2.817419 -1.694911 -2.025107
-2.818702 -1.664357 -2.024770
-2.802312 -1.786171 -2.012084
-2.807699 -1.764654 -2.015737
-2.863444 -1.086280 -2.055092
-2.890841 -0.988370 -2.073274
-2.890841 -0.988370 -2.073274
-2.919491 -0.640932 -2.092217
-2.845761 -1.387064 -2.037751
-3.030111 0.122760 -2.166615
-2.936777 -0.607882 -2.101021
-2.725789 -2.320536 -1.949507
-2.725789 -2.320536 -1.949507
-2.832031 -1.588960 -2.024142
-2.852487 -1.566423 -2.037022
-2.843665 -1.560491 -2.029704
-2.849955 -1.499016 -2.033532
-2.806350 -1.874599 -2.002105
-2.877621 -1.195308 -2.051692
-2.825991 -1.708230 -2.015185
-2.881604 -1.359791 -2.053860
-2.868507 -1.242149 -2.044074
-2.850878 -1.658225 -2.029712
-2.828803 -1.768741 -2.014095
-2.915943 -0.968000 -2.074467
-2.913103 -1.006695 -2.071190
-2.913103 -1.006695 -2.071190
-2.932187 -0.896304 -2.084084
-2.784596 -1.980982 -1.980158
-2.898669 -1.268537 -2.058460
-2.756062 -2.176839 -1.957126
-2.931237 -1.051528 -2.079282
-2.790185 -2.028311 -1.978474
-2.970839 -0.657275 -2.102782
-2.759413 -2.271792 -1.949881
-2.862271 -1.968512 -2.019986
-2.783943 -2.152493 -1.964986
-2.963026 -0.872568 -2.088286
-2.785375 -2.173450 -1.963998
-2.770683 -2.256563 -1.953739
-2.770683 -2.256563 -1.953739
-2.965301 -0.931736 -2.086468
-2.962941 -0.971868 -2.082841
-2.875816 -1.962218 -2.018594
-2.964041 -1.285402 -2.079137
-2.819438 -2.165873 -1.976443
-1.987919 -1.830519 -1.390670
-2.991677 -1.371116 -2.090517
-2.805279 -2.335351 -1.961248
-2.805279 -2.335351 -1.961248
-3.006333 -1.103795 -2.096729
-3.015750 -1.074089 -2.101313
-2.888136 -2.012172 -2.013616
-3.057533 -0.935383 -2.120790
-2.983150 -1.621928 -2.069934
-3.037808 -1.475202 -2.105152
-3.026378 -1.442881 -2.096795
-3.008107 -1.652980 -2.083701
-2.992902 -1.601840 -2.068275
-3.063491 -1.116429 -2.114641
-3.023661 -1.275155 -2.087653
-3.247284 0.004491 -2.235618
-3.247284 0.004491 -2.235618
-3.069915 -1.101553 -2.115067
-3.048125 -1.396567 -2.100077
-3.069386 -1.054503 -2.114065
-2.913788 -2.140615 -2.007924
-3.049439 -1.435552 -2.100430
-3.030981 -1.427493 -2.086362
-3.080828 -1.081050 -2.120276
-3.082184 -1.362531 -2.112554
-3.025153 -1.834424 -2.071061
-3.076815 -1.073758 -2.104544
-2.919666 -2.364225 -1.997412
-3.177817 -0.896873 -2.168700
-3.109604 -1.432993 -2.120976
-3.101685 -1.914992 -2.092740
-2.989081 -2.348384 -2.016858
-3.097666 -1.984387 -2.088729
-3.097666 -1.984387 -2.088729
-3.100063 -1.961564 -2.089796
-3.217781 -0.687881 -2.163321
-2.912677 -1.824393 -1.956535
-3.153380 -2.114733 -2.117037
-2.930424 -2.371244 -1.967276
-3.044143 -2.358171 -2.034770
-3.157729 -2.079251 -2.107421
-3.429693 -0.059514 -2.285082
-3.163738 -2.063463 -2.105657
-3.071090 -2.414886 -2.038051
-3.168711 -2.064022 -2.092632
-3.197808 -2.066889 -2.111711
-3.447275 -0.421976 -2.270562
-3.286529 -2.099996 -2.147208
-3.566107 -0.102729 -2.327280
-3.243975 -2.155033 -2.110602
-3.424427 -1.339260 -2.224215
-3.300168 -2.109662 -2.139214
-3.282434 -2.122082 -2.126761
-3.584116 -0.937202 -2.319592
-3.421882 -1.421313 -2.210040
-3.250891 -2.402977 -2.098455
-3.187669 -2.440855 -2.054668
-3.524242 -1.169212 -2.262028
-3.683435 -1.368871 -2.356371
-3.556036 -1.191719 -2.273729
-3.549398 -1.160126 -2.269173
-3.500313 -1.583984 -2.235431
-3.389056 -2.166305 -2.163496
-3.652712 -0.682423 -2.327985
-3.724415 -0.562313 -2.370401
-3.584601 -1.103734 -2.282011
-3.595065 -1.142418 -2.286269
-3.585317 -0.994301 -2.278037
-3.678891 -0.654888 -2.336643
-3.315232 -2.452957 -2.100556
-3.588273 -1.110325 -2.271904
-3.588273 -1.110325 -2.271904
-3.499486 -1.850290 -2.216033
-3.505304 -1.972366 -2.219787
-3.527091 -1.800930 -2.231652
-3.601185 -1.132954 -2.277524
-3.598532 -1.049240 -2.272564
-3.591597 -1.063223 -2.264906
-3.783550 -0.615803 -2.384457
-3.571694 -1.475745 -2.251851
-3.575518 -1.652209 -2.253596
-3.563007 -1.682504 -2.245107
-3.390615 -2.443221 -2.137136
-3.624159 -1.036865 -2.281039
-3.626799 -1.337425 -2.280931
-3.578121 -1.616143 -2.250491
-3.627698 -1.469084 -2.281269
-3.546307 -1.805145 -2.229597
-3.583914 -1.776507 -2.253089
-3.385635 -2.142988 -2.126319
-3.385635 -2.142988 -2.126319
-3.778963 -0.517005 -2.370746
-3.604230 -1.659550 -2.262117
-3.678941 -1.120744 -2.307075
-3.779217 -0.581070 -2.368660
-3.519464 -1.982603 -2.207456
-3.519464 -1.982603 -2.207456
-3.324906 -2.422098 -2.085952
-3.324906 -2.422098 -2.085952
-3.599345 -1.728035 -2.256933
-3.069748 -2.330329 -1.925449
-3.595076 -1.789034 -2.253186
-3.812739 -0.539744 -2.388018
-3.687540 -1.329835 -2.307296
-3.559785 -2.038394 -2.227572
-3.567877 -2.119813 -2.232290
-3.558830 -2.149971 -2.224961
-3.632211 -1.649837 -2.266510
-3.423342 -2.323091 -2.136722
-3.421366 -2.138791 -2.131465
-3.747873 -0.883228 -2.332588
-3.570238 -2.116517 -2.223361
-3.409986 -2.100797 -2.123507
-3.537297 -1.952972 -2.199691
-3.109391 -2.339493 -1.930306
-3.921453 -0.364414 -2.429652
-3.399846 -2.380647 -2.105080
-3.456219 -2.328710 -2.139161
-3.912785 -0.438660 -2.416194
-3.640597 -2.033556 -2.249694
-3.892869 -0.493164 -2.402587
-3.965819 -0.311652 -2.444447
-2.159651 -1.767276 -1.327106
-3.683283 -2.066854 -2.259664
-4.014656 -0.355100 -2.459729
-4.586563 -1.323136 -2.799787
-4.586563 -1.323136 -2.799787
-4.032009 -0.362455 -2.456789
-4.003576 -0.657248 -2.440441
-4.617272 -1.574416 -2.808164
-3.640687 -2.423881 -2.214003
-4.035374 -0.545265 -2.450300
-4.093884 -0.317522 -2.481177
-4.598301 -1.427382 -2.785058
-4.066723 -0.607954 -2.463344
-4.624581 -1.561054 -2.797638
-4.182077 -0.658910 -2.527101
-4.707444 -1.334554 -2.842834
-4.177729 -0.212368 -2.518927
-4.683083 -1.614796 -2.823313
-4.683083 -1.614796 -2.823313
-4.353826 -0.803658 -2.623541
-4.701705 -1.415030 -2.830700
-4.157091 -0.292961 -2.502526
-4.707593 -1.290819 -2.832724
-4.707593 -1.290819 -2.832724
-4.721183 -1.508323 -2.840538
-3.780021 -2.375967 -2.275444
-4.130457 -0.569118 -2.484852
-4.323172 0.304708 -2.594027
-4.250695 -0.667289 -2.551860
-4.732404 -1.610582 -2.832115
-4.149726 -0.318401 -2.482925
-4.704007 -1.422249 -2.810979
-4.704007 -1.422249 -2.810979
-4.217216 -0.291692 -2.520155
-4.234387 -0.569962 -2.527849
-4.234387 -0.569962 -2.527849
-4.193923 -0.536962 -2.503794
-4.742979 -1.535869 -2.829932
-3.747918 -2.059251 -2.237867
-4.788145 -1.626323 -2.852281
-4.275676 -0.165069 -2.546432
-4.275676 -0.165069 -2.546432
-3.763027 -2.044817 -2.242639
-4.572804 -0.906521 -2.721628
-4.572804 -0.906521 -2.721628
-4.249150 -0.526369 -2.527513
-4.426456 -0.749775 -2.629705
-3.752291 -2.028822 -2.227265
-3.636080 -2.345302 -2.157694
-4.256545 -0.511581 -2.521865
-4.317719 -0.208269 -2.555661
-3.646478 -2.316011 -2.156033
-4.291256 -0.324087 -2.526580
-3.463178 -2.374698 -2.040287
-3.464166 -2.354216 -2.037990
-4.321441 -0.494907 -2.540182
-4.321441 -0.494907 -2.540182
-4.411599 -0.556595 -2.590949
-2.342016 -1.803022 -1.374946
-4.465144 0.295703 -2.614438
-4.704917 -0.994986 -2.754208
-4.704917 -0.994986 -2.754208
-4.369497 -0.484662 -2.558301
-3.696805 -2.374773 -2.165525
-3.696805 -2.374773 -2.165525
-3.530035 -2.308701 -2.062209
-4.503937 0.168556 -2.625943
-4.413294 -0.486660 -2.573121
-4.413294 -0.486660 -2.573121
-4.429893 -0.369278 -2.578240
-4.525612 -0.046396 -2.633255
-4.416454 -0.267249 -2.569951
-3.562108 -2.348796 -2.073817
-4.560263 0.118532 -2.648359
-4.461170 -0.479862 -2.590226
-4.567817 -0.080518 -2.649108
-4.546246 -0.034664 -2.636396
-4.544065 -0.167189 -2.635392
-3.393883 -2.322943 -1.970211
-4.508329 -0.247771 -2.613324
-4.581867 0.095732 -2.654828
-4.487341 -0.404248 -2.599589
-4.850874 -2.594190 -2.810958
-4.850874 -2.594190 -2.810958
-4.486050 -0.228258 -2.597252
-4.865179 -2.566011 -2.817532
-4.865179 -2.566011 -2.817532
-4.477511 -0.431761 -2.591500
-4.860753 -2.499295 -2.814282
-4.591304 0.010744 -2.656251
-4.482178 -0.487108 -2.591490
-4.556064 -0.213582 -2.629489
-3.571486 -2.336239 -2.062614
-4.682508 0.138188 -2.696200
-4.682508 0.138188 -2.696200
-4.666309 0.099325 -2.684906
-4.564918 -0.278658 -2.626689
-4.532700 -0.377234 -2.608359
-3.455072 -2.295548 -1.988003
-4.575547 -0.310853 -2.625953
-4.575547 -0.310853 -2.625953
-4.572041 -0.265144 -2.623797
-4.574257 -0.493885 -2.622829
-4.893819 -1.204569 -2.804670
-4.681679 -0.092916 -2.680824
-4.681679 -0.092916 -2.680824
-4.911830 -2.124125 -2.813198
-3.473936 -2.325547 -1.989268
-4.924339 -2.064136 -2.817319
-4.723361 -0.001443 -2.701079
-2.947714 -2.086512 -1.686352
-4.923696 -2.259912 -2.812781
-3.898762 -0.846706 -2.227440
-4.753984 0.176045 -2.711795
-4.636515 -0.496015 -2.645244
-4.636515 -0.496015 -2.645244
-4.939001 -1.291472 -2.814831
-4.934001 -2.495166 -2.813755
-3.889225 -2.432897 -2.216531
-3.889225 -2.432897 -2.216531
-4.734853 -0.050591 -2.694313
-3.489710 -2.302578 -1.987380
-4.677929 -0.143743 -2.660205
-4.642936 -0.508322 -2.640499
-4.911530 -2.583425 -2.794286
-4.745857 0.106186 -2.698116
-4.804211 0.227894 -2.729119
-4.922121 -2.459357 -2.795758
-5.015603 -1.429718 -2.847024
-4.727813 -0.121350 -2.681860
-3.359887 -2.275787 -1.906758
-4.732012 -0.060587 -2.679915
-4.916638 -2.552985 -2.785369
-4.769627 -0.150700 -2.700182
-2.588811 -1.887848 -1.466824
-4.720797 -0.581371 -2.671314
-4.858726 0.061501 -2.747492
-4.719738 -0.516484 -2.669183
-4.985503 -1.519385 -2.819270
-4.978756 -1.857001 -2.814550
-4.978756 -1.857001 -2.814550
-4.833555 -0.183483 -2.723548
-4.957855 -1.723139 -2.789837
-4.858533 -0.098878 -2.732342
-4.804057 -0.380145 -2.701690
-4.924672 -1.798421 -2.769111
-3.293492 -2.242351 -1.850953
-4.975245 -2.562364 -2.794246
-4.962608 0.048625 -2.781927
-4.970442 -1.644600 -2.784867
-4.816439 -0.490433 -2.698330
-4.805624 -0.443905 -2.690107
-4.936017 -2.779329 -2.764198
-4.952579 -0.962624 -2.771235
-4.811374 -0.563802 -2.691332
-2.243079 -1.698850 -1.256522
-2.243079 -1.698850 -1.256522
-4.943762 -2.559148 -2.764901
-4.943762 -2.559148 -2.764901
-5.034971 -1.619656 -2.808724
-4.982299 -2.555078 -2.779334
-4.926574 -2.620914 -2.747523
-4.884658 -0.400335 -2.721943
-4.869142 -0.617538 -2.713181
-4.992904 0.060459 -2.780046
-4.921770 -2.718470 -2.742188
-4.991100 0.017428 -2.777025
-5.010171 0.024222 -2.785885
-4.884414 -0.583052 -2.715717
-4.884414 -0.583052 -2.715717
-4.947990 -0.314356 -2.750653
-4.956505 -2.565017 -2.756764
-3.886866 -2.405740 -2.162112
-5.015934 -2.469281 -2.789323
-5.022370 -2.535710 -2.791626
-4.884606 -0.604356 -2.711936
-4.884606 -0.604356 -2.711936
-4.944611 -0.349398 -2.744285
-4.869717 -0.560835 -2.700984
-4.905340 -0.440934 -2.719132
-4.979696 -0.390249 -2.760260
-5.021919 0.087656 -2.781030
-4.946707 -2.751016 -2.741280
-4.973151 -0.759244 -2.753288
-4.973151 -0.759244 -2.753288
-6.103817 -0.813838 -3.372316
-4.992113 -0.925128 -2.760597
-5.027848 -0.310836 -2.777898
-3.710629 -2.345354 -2.050111
-4.973866 -0.415540 -2.744079
-4.964443 -0.630669 -2.739203
-4.964443 -0.630669 -2.739203
-5.040346 -0.378463 -2.780302
-4.306141 -0.567682 -2.376874
-4.955444 -0.649356 -2.731658
-5.055128 -1.675791 -2.786313
-4.967278 -0.442873 -2.736413
-3.856981 -2.397395 -2.124680
-5.067486 0.054148 -2.789600
-4.991384 -0.539040 -2.745954
-2.424953 -1.763746 -1.335095
-5.088255 -2.562678 -2.792688
-5.042461 -0.761773 -2.766027
-5.011809 -0.520212 -2.748637
-5.165849 0.122384 -2.832111
-5.054184 -2.422460 -2.770761
-5.054184 -2.422460 -2.770761
-5.143725 0.159957 -2.817018
-5.039184 -2.492314 -2.759648
-5.038090 -0.682579 -2.757897
-5.114030 -1.934838 -2.798617
-5.024821 -0.701823 -2.749226
-5.024821 -0.701823 -2.749226
-5.143370 -2.480615 -2.815014
-3.796453 -2.380919 -2.078006
-5.100099 -2.054830 -2.787309
-5.094514 -1.645648 -2.783840
-4.015387 -2.423932 -2.194259
-5.094523 -0.778123 -2.777530
-5.071731 -0.670955 -2.764344
-5.034473 -2.543712 -2.744627
-5.034473 -2.543712 -2.744627
-5.034473 -2.543712 -2.744627
-5.089873 -2.465358 -2.772100
-4.990291 -2.562642 -2.717606
-5.144172 -1.163256 -2.799142
-5.184920 -1.632248 -2.821439
-5.173860 -0.829436 -2.814842
-3.632877 -2.330058 -1.976275
-5.103944 -0.763509 -2.774518
-5.116139 -0.742843 -2.780591
-5.146111 -0.953662 -2.795116
-5.146111 -0.953662 -2.795116
-5.085735 -0.698534 -2.760008
-4.990204 -2.519713 -2.706588
-5.160838 -0.845130 -2.796224
-5.093988 -2.454300 -2.758247
-4.895288 -2.667722 -2.648326
-5.154788 -0.649603 -2.786252
-5.155916 -0.486543 -2.787059
-5.164915 -0.809023 -2.789539
-5.062408 -2.483754 -2.731145
-4.927809 -2.444411 -2.658104
-5.232882 -0.921793 -2.818799
-5.232882 -0.921793 -2.818799
-5.263263 -1.226853 -2.832247
-5.263263 -1.226853 -2.832247
-5.169753 -1.838485 -2.780407
-5.169753 -1.838485 -2.780407
-5.213317 -1.739822 -2.803728
-5.213087 -1.685146 -2.802551
-5.213087 -1.685146 -2.802551
-5.221187 -0.901912 -2.805039
-5.208194 -1.604693 -2.798064
-5.208194 -1.604693 -2.798064
-5.225665 -0.839021 -2.801272
-3.719487 -2.342402 -1.993925
-5.295187 -1.192199 -2.836183
-5.295187 -1.192199 -2.836183
-5.219085 -1.719128 -2.795550
-4.191171 -2.475985 -2.244339
-5.175084 -1.809703 -2.766865
-5.101973 -2.462660 -2.728047
-5.101973 -2.462660 -2.728047
-5.126451 -2.411924 -2.740628
-5.286944 -0.980675 -2.824745
-5.185634 -2.073696 -2.766684
-5.240013 -1.626650 -2.794900
-5.017455 -2.718868 -2.676884
-5.279538 -1.070044 -2.814876
-5.134690 -2.130404 -2.738074
-3.845859 -2.382602 -2.051787
-5.293483 -0.931288 -2.820342
-5.194191 -1.818400 -2.767704
-5.311457 -1.636412 -2.829122
-5.267860 -1.753158 -2.804640
-5.318541 -1.130374 -2.831597
-5.071348 -2.554096 -2.700352
-5.331311 -1.062355 -2.834484
-5.331311 -1.062355 -2.834484
-5.088756 -2.360625 -2.705642
-5.113415 -2.097022 -2.718009
-5.085188 -2.516683 -2.702995
-5.355557 -1.162699 -2.843327
-5.355557 -1.162699 -2.843327
-5.265168 -1.690084 -2.794538
-5.352484 -1.214576 -2.840010
-5.352484 -1.214576 -2.840010
-5.073136 -2.473852 -2.690563
-4.240280 -2.473853 -2.248157
-5.041188 -2.606780 -2.671873
-5.270816 -1.655429 -2.792977
-4.020895 -2.419467 -2.131185
-5.325283 -1.547089 -2.821038
-5.325283 -1.547089 -2.821038
-5.376030 -1.146433 -2.846839
-5.368056 -1.246916 -2.838653
-5.320068 -1.734751 -2.812858
-5.347483 -1.296280 -2.825818
-5.302596 -1.782594 -2.801903
-5.267113 -1.853698 -2.781991
-5.304843 -1.815970 -2.801585
-5.288976 -1.910250 -2.792067
-5.269689 -1.974412 -2.780107
-5.269689 -1.974412 -2.780107
-5.393344 -1.333826 -2.843966
-5.234835 -2.088669 -2.758829
-5.246628 -1.632980 -2.764274
-5.218573 -2.125510 -2.748802
-5.218573 -2.125510 -2.748802
-5.480435 -1.129448 -2.885180
-5.383252 -1.183460 -2.833321
-5.121507 -2.207903 -2.694344
-5.121507 -2.207903 -2.694344
-5.398904 -1.421412 -2.839543
-5.157034 -2.272949 -2.710848
-4.032110 -2.446359 -2.119840
-5.141467 -2.334891 -2.701921
-5.655382 -0.323123 -2.970715
-5.142393 -2.377221 -2.702071
-5.120494 -2.440350 -2.687560
-5.421483 -1.274274 -2.843667
-5.273578 -2.068714 -2.766035
-5.649187 -0.430648 -2.961690
-5.434972 -1.413670 -2.849540
-5.038323 -2.754492 -2.638430
-5.434753 -1.496499 -2.844093
-5.432377 -1.359965 -2.842135
-5.084941 -2.465220 -2.660602
-5.398821 -1.642816 -2.823815
-5.433376 -1.584613 -2.839799
-5.433376 -1.584613 -2.839799
-4.114412 -2.436072 -2.150768
-5.052832 -2.668081 -2.637725
-5.452327 -1.448367 -2.845355
-5.443732 -1.515445 -2.840586
-5.049236 -2.593162 -2.634662
-5.211153 -1.904912 -2.718012
-5.233437 -2.112815 -2.729466
-5.258457 -2.214652 -2.740581
-5.244414 -2.079327 -2.732318
-5.375970 -1.770478 -2.800710
-5.375970 -1.770478 -2.800710
-5.475797 -1.537068 -2.852249
-5.330046 -2.060942 -2.776109
-5.194732 -2.264654 -2.704503
-5.435290 -1.610093 -2.828598
-5.574799 -1.838648 -2.900042
-5.156655 -2.438759 -2.682816
-5.231545 -2.362736 -2.721227
-4.958872 -2.651267 -2.579186
-5.095571 -2.504627 -2.649083
-5.259477 -2.110710 -2.734005
-5.292197 -2.000498 -2.750839
-5.292197 -2.000498 -2.750839
-5.195289 -2.309908 -2.700079
-5.195289 -2.309908 -2.700079
-5.287643 -2.075372 -2.747151
-5.085009 -2.589288 -2.641619
-5.245102 -2.178708 -2.724239
-2.359559 -1.663249 -1.227024
-5.025419 -2.659488 -2.605368
-5.449771 -1.746851 -2.824683
-5.286856 -2.148635 -2.738666
-5.286856 -2.148635 -2.738666
-5.145274 -2.346794 -2.663784
-5.095587 -2.249188 -2.637590
-5.005931 -2.518382 -2.590642
-5.289795 -2.084135 -2.735150
-5.056817 -2.503759 -2.614448
-5.497799 -1.670383 -2.840696
-5.169813 -2.320984 -2.670193
-5.169813 -2.320984 -2.670193
-5.122615 -2.457608 -2.644687
-5.070326 -2.565777 -2.617336
-5.177510 -2.390451 -2.671272
-5.495429 -1.832527 -2.835254
-5.007086 -2.592411 -2.580432
-5.464638 -1.864906 -2.816041
-5.338978 -2.132426 -2.748644
-5.226902 -2.262063 -2.690506
-5.355487 -2.090109 -2.755360
-5.147246 -2.424893 -2.647405
-5.334821 -2.107533 -2.742986
-4.939077 -2.660439 -2.538696
-5.597352 -1.673832 -2.874481
-5.597352 -1.673832 -2.874481
-5.670519 -1.381239 -2.910176
-5.778191 -1.341086 -2.964075
-5.087040 -2.716564 -2.607984
-5.288469 -2.253832 -2.710380
-5.480785 -2.024594 -2.809300
-5.276020 -2.247782 -2.703718
-5.621317 -1.692731 -2.877753
-5.402128 -2.067672 -2.764332
-5.342033 -2.307827 -2.729306
-5.342033 -2.307827 -2.729306
-5.101697 -2.418232 -2.606176
-5.209029 -2.358224 -2.660565
-5.056858 -2.702718 -2.582515
-5.604824 -1.832277 -2.861994
-5.633913 -1.706455 -2.876391
-5.082830 -2.541385 -2.593286
-5.673080 -1.669194 -2.894393
-4.961448 -2.670465 -2.528151
-5.646866 -1.599257 -2.877449
-5.403700 -2.021196 -2.752671
-4.101437 -2.423809 -2.089459
-5.012098 -2.352039 -2.548044
-5.012098 -2.352039 -2.548044
-6.275664 -0.420278 -3.177296
-4.918802 -2.348965 -2.490492
-4.918802 -2.348965 -2.490492
-4.791943 -2.369107 -2.423686
-4.791943 -2.369107 -2.423686
-5.506185 -1.885853 -2.782199
-5.097661 -2.586686 -2.576030
-5.097661 -2.586686 -2.576030
-5.097661 -2.586686 -2.576030
-4.937555 -2.633194 -2.494602
-5.892085 -0.605416 -2.975360
-6.383507 0.145855 -3.219908
-4.240921 -2.480295 -2.140448
-4.970307 -2.433337 -2.503311
-5.893321 -1.826720 -2.967475
-4.708909 -2.579783 -2.371156
-5.128034 -2.559802 -2.581000
-4.903444 -2.633055 -2.465369
-5.158876 -2.714676 -2.593365
-6.409702 -0.329497 -3.218196
-6.328549 -0.522552 -3.174698
-6.498585 0.179635 -3.258226
-6.318164 -0.688897 -3.166720
-5.210771 -2.670034 -2.610189
-6.519013 -1.524909 -3.264980
-6.530020 0.066212 -3.264360
-6.807632 -0.078872 -3.400912
-5.210545 -2.544530 -2.602048
-4.258833 -2.456037 -2.128163
-6.124113 -1.233027 -3.058325
-6.062262 -1.968142 -3.024060
-4.754217 -2.576529 -2.371003
-5.106421 -2.514978 -2.543464
-6.184005 -1.442413 -3.080039
-6.640742 0.324330 -3.303319
-5.593179 -2.358816 -2.779525
-5.176090 -2.505645 -2.570988
-6.454558 -0.709022 -3.205164
-5.126793 -2.718495 -2.546139
-5.219863 -2.726854 -2.591338
-6.784798 0.044210 -3.364813
-6.468083 -0.686359 -3.207544
-6.313485 -1.499407 -3.130313
-4.799864 -2.585268 -2.381089
-4.309638 -2.462766 -2.138814
-6.444340 -0.657202 -3.194667
-5.995050 -2.141753 -2.972956
-6.630912 -0.544126 -3.285994
-5.441582 -2.492661 -2.696200
-6.221602 -1.767640 -3.082859
-5.286898 -2.422295 -2.618820
-6.715717 -0.356968 -3.322189
-6.750893 0.109711 -3.338160
-5.990474 -2.357534 -2.961017
-5.423590 -2.439144 -2.679662
-6.106709 -1.983626 -3.016223
-6.319072 -1.662103 -3.120402
-6.562804 -0.743075 -3.239642
-6.360331 -1.593788 -3.136890
-5.788982 -2.398694 -2.852261
-4.635617 -2.541547 -2.281772
-6.823889 -0.103313 -3.356109
-6.145720 -1.949603 -3.023451
-6.145720 -1.949603 -3.023451
-6.199481 -2.231488 -3.048114
-6.396431 -1.526554 -3.144317
-6.919467 -0.579970 -3.399024
-6.340013 -1.713930 -3.115772
-5.458708 -2.572066 -2.680244
-4.433271 -2.529478 -2.178499
-6.060695 -2.252939 -2.975429
-5.324192 -2.790355 -2.612416
-6.894321 0.273168 -3.381553
-6.512903 -1.362630 -3.194952
-6.203143 -2.005710 -3.041824
-6.162849 -2.394490 -3.019862
-5.940214 -2.484697 -2.909618
-5.471825 -2.620701 -2.679414
-5.368983 -2.474405 -2.628663
-5.922022 -2.373817 -2.900044
-6.928300 -0.167759 -3.390428
-6.928300 -0.167759 -3.390428
-6.678733 -0.753764 -3.268250
-5.416674 -2.394770 -2.650587
-4.949504 -2.647768 -2.423131
-4.613342 -2.504610 -2.257539
-5.389063 -2.546173 -2.636131
-6.299199 -1.879593 -3.080645
-5.419007 -2.656397 -2.649585
-5.419007 -2.656397 -2.649585
-7.032775 -0.077561 -3.431508
-6.238064 -2.058034 -3.044613
-6.921398 -0.659659 -3.373965
-6.787648 -0.701361 -3.307403
-6.657630 -1.275227 -3.243688
-6.288776 -2.277985 -3.062798
-4.524809 -2.490503 -2.205788
-6.403885 -1.959503 -3.119129
-6.756184 -1.090907 -3.284600
-6.958204 -0.697014 -3.381138
-6.958204 -0.697014 -3.381138
-5.464911 -2.590985 -2.656498
-6.603650 -1.354273 -3.210083
-6.661572 -1.199707 -3.237565
-7.114465 -2.673560 -3.456530
-6.754535 -1.169396 -3.280056
-7.583621 -2.374417 -3.679401
-7.487372 -2.418090 -3.630208
-7.563298 -2.522527 -3.663714
-7.102456 -0.629928 -3.438053
-5.291267 -2.751787 -2.562750
-7.076113 -0.730011 -3.419433
-7.218293 -0.130719 -3.487024
-5.382995 -2.829994 -2.601823
-6.757109 -1.595920 -3.263644
-7.829484 -3.413968 -3.777147
-5.931338 -2.693361 -2.860643
-5.733281 -2.997023 -2.764776
-5.733281 -2.997023 -2.764776
-6.993902 -0.840581 -3.369777
-7.304620 -0.147942 -3.518035
-5.430987 -2.614551 -2.617249
-4.879620 -2.611143 -2.352611
-5.882609 -3.028617 -2.835219
-6.993409 -0.865972 -3.366746
-7.260093 -0.260617 -3.494179
-7.348752 -2.818181 -3.537253
-6.729127 -2.804302 -3.237527
-4.691136 -2.580923 -2.259208
-6.975806 -0.770894 -3.354476
-8.130979 -3.490011 -3.906574
-7.175795 -0.747296 -3.446291
-7.330808 -0.164682 -3.519881
-6.799210 -1.531306 -3.265381
-6.799210 -1.531306 -3.265381
-7.046501 -0.859631 -3.382888
-6.945808 -1.159559 -3.333286
-6.918693 -2.998929 -3.318729
-6.918693 -2.998929 -3.318729
-6.935849 -1.248287 -3.327591
-7.117907 -0.795156 -3.413309
-7.117907 -0.795156 -3.413309
-7.067394 -1.004839 -3.389496
-7.067394 -1.004839 -3.389496
-7.023046 -0.885409 -3.367318
-7.552623 -3.417673 -3.620987
-7.774649 -2.400855 -3.725149
-6.264532 -3.170921 -3.003408
-7.395090 -0.543343 -3.540358
-7.381523 -0.182039 -3.533544
-6.833507 -1.398407 -3.271774
-7.457976 -2.494813 -3.568885
-6.965839 -1.659576 -3.334314
-7.324509 -0.234652 -3.503036
-7.051046 -1.106082 -3.371563
-7.614236 -2.625180 -3.638110
-8.007227 -2.597839 -3.823892
-7.088904 -1.018617 -3.385510
-7.088904 -1.018617 -3.385510
-7.465910 -0.198585 -3.563605
-6.935951 -1.533598 -3.311883
-7.370170 -0.458339 -3.517275
-7.115104 -1.202075 -3.395709
-2.779716 -1.763525 -1.331146
-7.406472 -2.264755 -3.531770
-7.436321 -0.376223 -3.545799
-7.436321 -0.376223 -3.545799
-8.213155 -1.410487 -3.913962
-7.107544 -1.180608 -3.385070
-7.591246 -0.285163 -3.613511
-7.591246 -0.285163 -3.613511
-6.587087 -3.368685 -3.137258
-7.527427 -0.217570 -3.582294
-7.134085 -1.107582 -3.395465
-7.374255 -0.817451 -3.509059
-7.117174 -1.053084 -3.385889
-7.331583 -2.483941 -3.485378
-7.232748 -0.916104 -3.438794
-7.319914 -2.479537 -3.479198
-7.152029 -3.543385 -3.399634
-2.854523 -1.787638 -1.361254
-4.879555 -2.638124 -2.320009
-7.009856 -3.506333 -3.329161
-6.649270 -2.875451 -3.156148
-6.649270 -2.875451 -3.156148
-7.687608 -3.534635 -3.649572
-7.367821 -2.574716 -3.495186
-7.519562 -0.341459 -3.565318
-7.245220 -3.377763 -3.436296
-7.295053 -0.934897 -3.456789
0.883730 -0.130239 0.403319
-7.600157 -2.734664 -3.597611
-7.159962 -1.181054 -3.390237
-6.229408 -2.695242 -2.946627
-7.135284 -1.523936 -3.374098
-7.120732 -1.566321 -3.365494
-7.394255 -3.821880 -3.498931
-7.890326 -3.613049 -3.727734
-7.890326 -3.613049 -3.727734
-7.255150 -1.318903 -3.424549
-6.170017 -2.692942 -2.909849
-7.445020 -3.115809 -3.510249
-10.803973 -4.815030 -5.094555
-4.748412 -2.592783 -2.242500
-7.264738 -1.659036 -3.423463
-7.932816 -3.311020 -3.738471
-6.524552 -2.776081 -3.069768
-7.579151 -1.082039 -3.562965
-6.725401 -3.057156 -3.162203
-7.239579 -1.626013 -3.400532
-7.157959 -2.590065 -3.361497
-7.259699 -1.718075 -3.409601
-7.300135 -1.698336 -3.428467
-7.355808 -1.205326 -3.454412
-7.044254 -3.183424 -3.306125
-7.078436 -3.531615 -3.324084
-7.498774 -0.996407 -3.517430
-7.774246 -0.515003 -3.644823
-7.751652 -0.299066 -3.626082
-7.662504 -0.906515 -3.581939
-8.277799 -3.925473 -3.867396
-8.277799 -3.925473 -3.867396
-7.807547 -0.687467 -3.640495
-2.908391 -1.797601 -1.361542
-2.908391 -1.797601 -1.361542
-7.685492 -1.179382 -3.580094
-5.301377 -2.819134 -2.465244
-7.863341 -0.640036 -3.650542
-7.899847 -0.178193 -3.668615
-7.860012 -0.694159 -3.647950
-2.844082 -1.768782 -1.325982
-13.885031 -6.145476 -6.439985
-7.888560 -1.164295 -3.653498
-7.884931 -1.069833 -3.649106
-7.023525 -3.508694 -3.245333
-7.920679 -1.064205 -3.649617
-7.920679 -1.064205 -3.649617
-10.254605 -1.646540 -4.707675
-7.626622 -2.538539 -3.503474
-8.635664 -3.213849 -3.965010
-8.902936 -3.395028 -4.087601
-9.984259 -1.674173 -4.582605
-3.386715 -1.980372 -1.560154
-8.909394 -1.311153 -4.083621
-5.606330 -2.940256 -2.575481
-9.535545 -4.248231 -4.374283
-8.710057 -3.383726 -3.995390
-8.504136 -3.397405 -3.899952
-9.286513 -3.305116 -4.256683
-8.569283 -3.497758 -3.925889
-7.804271 -2.092619 -3.574703
-10.301593 -1.625869 -4.714450
-5.305019 -2.813203 -2.432874
-5.336688 -2.809790 -2.445684
-5.336688 -2.809790 -2.445684
-12.073138 -5.145564 -5.523376
-7.853606 -2.488233 -3.593224
-8.310065 -3.455129 -3.802100
-7.857856 -2.529142 -3.591635
-9.340230 -3.577743 -4.268723
-9.340230 -3.577743 -4.268723
-9.340230 -3.577743 -4.268723
-8.877269 -3.464682 -4.056416
-6.846461 -2.815090 -3.125708
-8.401597 -3.517008 -3.831981
-8.225273 -3.318954 -3.752092
-8.051810 -3.811764 -3.671577
-7.989036 -2.595015 -3.640244
-10.277146 -1.654970 -4.679000
-10.574471 -4.688650 -4.816115
-6.491910 -2.655398 -2.954356
-7.405492 -3.685152 -3.368954
-6.793753 -2.935174 -3.087255
-8.792312 -3.057899 -3.995447
-6.839367 -2.797371 -3.101907
-6.839367 -2.797371 -3.101907
-7.796248 -3.718120 -3.536506
-6.869889 -2.855232 -3.114406
-10.597188 0.258590 -4.795877
-7.522213 -3.641201 -3.405471
-7.487820 -3.076761 -3.384792
-8.164294 -3.772238 -3.688500
-8.164294 -3.772238 -3.688500
-7.882729 -3.718046 -3.559265
-13.668390 -4.342737 -6.162800
-11.859209 -0.337457 -5.340429
-10.883576 0.472776 -4.889295
-10.715846 -0.648804 -4.811197
-11.678003 -5.102651 -5.240398
-10.550408 -1.766058 -4.732907
-11.976262 -0.378754 -5.369539
-13.805667 -6.376862 -6.178962
-8.982615 -3.537453 -4.018574
-11.570988 -0.463275 -5.171912
-11.772794 -0.526736 -5.254216
-14.394323 -6.567048 -6.420248
-14.394323 -6.567048 -6.420248
-11.088948 -0.225639 -4.946103
-10.564343 -1.802963 -4.707461
-11.890602 -0.676321 -5.293094
-11.989668 -0.541688 -5.334273
-10.440094 -1.807963 -4.641559
-11.703547 -0.501340 -5.199546
-11.515420 -0.499445 -5.115186
-10.617270 -2.572748 -4.708836
-10.625949 -1.777965 -4.709094
-11.224223 -2.106468 -4.969746
-11.457599 -0.768498 -5.069996
-11.371367 1.009455 -5.025251
-12.221551 -3.967134 -5.401421
-11.334829 -4.763018 -5.006633
-11.334829 -4.763018 -5.006633
-11.203859 0.676874 -4.943214
-10.945530 -2.602425 -4.830137
-11.081349 0.652476 -4.885924
-10.242687 -3.886472 -4.516367
-11.290762 0.610067 -4.973747
-11.434067 -2.638859 -5.038116
-10.680635 -3.852851 -4.704112
-10.677392 -4.140004 -4.703463
-10.661402 -4.230507 -4.693313
-10.991998 -2.794769 -4.836109
-10.691937 -2.579515 -4.703460
-10.953616 -1.940834 -4.811537
-11.139090 -0.019019 -4.890733
-3.534003 -2.003821 -1.559476
-11.034438 0.275292 -4.844070
-11.034438 0.275292 -4.844070
-11.520347 -4.671243 -5.056525
-11.520347 -4.671243 -5.056525
-10.766626 -3.951796 -4.724278
-10.883193 -0.198836 -4.772419
-12.895600 -4.440615 -5.658163
-3.147706 -1.853033 -1.387760
-10.908614 -1.873790 -4.781518
-10.699511 -2.649095 -4.686742
-11.344978 -4.567517 -4.969363
-10.949442 -4.197265 -4.795082
-10.949442 -4.197265 -4.795082
-11.037428 -2.625899 -4.831462
-11.395368 0.348634 -4.986254
-11.190692 0.063306 -4.891043
-11.247419 -4.243653 -4.918381
-11.496986 -0.413504 -5.022458
-11.144321 0.571808 -4.868979
-11.154849 -2.067643 -4.874704
-11.154849 -2.067643 -4.874704
-13.011319 -5.512982 -5.684303
-11.686525 -4.602036 -5.105949
-10.935060 0.122439 -4.773671
-10.709102 -2.585806 -4.676179
-10.996212 0.436288 -4.800400
-11.120326 0.305527 -4.854841
-11.111093 -0.084873 -4.849162
-10.889620 -0.290803 -4.752191
-11.698499 -0.443898 -5.100032
-11.211871 0.561139 -4.887713
-12.895076 -5.363654 -5.621063
-11.549830 -2.920147 -5.033514
-11.480267 0.266631 -4.998191
-11.586145 -0.849442 -5.040570
-11.493746 -4.276819 -5.000586
-11.267455 -0.347161 -4.899786
-11.082669 -0.642115 -4.815811
-11.005527 0.161907 -4.779353
-11.025958 0.162896 -4.788034
-11.285574 -0.069637 -4.896693
-11.010347 -2.659645 -4.776245
-11.383480 -0.488136 -4.933981
-11.383480 -0.488136 -4.933981
-10.939234 -2.336486 -4.735720
-11.799788 -0.790980 -5.107477
-11.659624 -2.950084 -5.047151
-11.108744 -1.985692 -4.808074
-12.327908 -4.463754 -5.334737
-11.628711 -0.431892 -5.023464
-11.502940 -0.348357 -4.970332
-11.104353 -0.578194 -4.798518
-11.587915 -0.712896 -4.996396
-11.350718 -2.019986 -4.888807
-11.137377 -2.714337 -4.794676
-13.393241 -5.547120 -5.765766
-13.305019 -4.993443 -5.726181
-11.623247 -4.225496 -4.999234
-14.260889 -5.990740 -6.130179
-14.313325 -5.890336 -6.139474
-14.226391 -5.928047 -6.101511
-11.334538 -2.457680 -4.860866
-14.902656 -5.720519 -6.368716
-14.413869 -5.979278 -6.153081
-14.759009 -6.206203 -6.296353
-15.197026 -6.170446 -6.478084
-11.717564 -2.063322 -4.989788
-14.853408 -6.118655 -6.307913
-14.674659 -5.902439 -6.222256
-15.404344 -5.817890 -6.531962
-15.404344 -5.817890 -6.531962
