ply
format ascii 1.0
element vertex 1253
property float x
property float y
property float z
property uchar red
property uchar green
property uchar blue
end_header
-2.855688 -0.025498 4.639048 110 137 147
-2.853516 -0.045629 4.643913 71 100 109
-6.992455 -4.833638 11.577716 40 60 71
-3.283050 -2.515668 5.443112 40 68 75
-4.857563 1.399939 8.165556 185 197 201
-2.798759 0.012086 4.667763 95 125 136
-7.645313 -3.287507 12.983300 47 83 91
-2.815626 -0.379163 4.700697 34 49 52
-3.248890 -2.565064 5.453047 102 124 130
-3.225586 -2.587399 5.426576 59 88 97
-3.267321 -2.539850 5.497185 54 73 80
-2.773093 -0.065136 4.640633 77 105 112
-3.283729 -2.538999 5.538157 46 72 79
-3.283729 -2.538999 5.538157 46 72 79
-3.278376 -2.521026 5.538071 44 66 72
-3.260113 -2.514989 5.552572 53 72 79
-2.752675 0.015726 4.675957 107 134 144
-3.225859 -2.590016 5.511892 119 139 144
-4.823722 2.035003 8.324941 87 116 121
-3.172228 -2.624369 5.470523 95 121 128
-3.242645 -2.431179 5.608714 43 71 78
-3.238983 -2.420778 5.621884 46 72 79
-3.179114 -2.638643 5.542535 59 83 89
-3.230987 -2.401897 5.642363 44 68 74
-7.346902 -3.074463 13.127349 53 98 111
-3.164866 -2.581620 5.602661 29 53 59
-5.226195 3.101911 9.378972 174 196 202
-4.962220 2.942509 8.958175 87 113 119
-5.019895 3.047507 9.102743 94 117 125
-3.103820 -2.606094 5.591806 110 136 142
-5.070617 3.140810 9.200264 154 173 181
-3.111052 -2.598059 5.613514 33 53 58
-4.912111 2.954606 8.955620 56 89 98
-4.864496 2.946568 8.939084 54 80 86
-5.058113 3.353596 9.340044 150 166 172
-5.014471 3.315184 9.347552 167 183 189
-5.014471 3.315184 9.347552 167 183 189
-5.006194 3.305624 9.350850 61 75 74
-3.058966 -2.509472 5.724145 35 52 55
-4.916677 3.165952 9.273549 132 150 157
-4.916677 3.165952 9.273549 132 150 157
-3.023066 -2.530656 5.689360 97 121 127
-4.738895 2.994699 9.001771 67 100 109
-2.996561 -2.562674 5.691410 41 67 73
-2.996561 -2.562674 5.691410 41 67 73
-3.081319 -2.092382 5.889969 89 115 121
-4.876996 3.146540 9.384823 62 84 90
-2.530789 -0.051730 4.852445 86 112 119
-4.779903 3.131982 9.337437 87 115 126
-6.299480 -3.762440 12.410831 39 74 88
-4.151352 1.442377 8.135284 179 191 195
-4.750294 3.164813 9.338970 149 170 172
-6.285972 0.287774 12.466204 119 140 138
-4.726793 3.148798 9.349969 168 186 193
-2.494370 -0.045533 4.885049 80 110 121
-2.489767 -0.050346 4.880718 142 168 175
-2.498969 -0.034069 4.903237 94 119 129
-6.329378 -3.520579 12.627624 29 52 60
-6.329378 -3.520579 12.627624 29 52 60
-6.324172 -3.557363 12.624710 100 137 151
-2.423403 -0.231412 4.779876 50 78 85
-2.460903 -0.063645 4.871388 87 116 123
-2.460903 -0.063645 4.871388 87 116 123
-2.927839 -2.368392 5.835113 103 129 135
-6.187734 -3.579405 12.492388 109 140 149
-2.451505 -0.046744 4.895898 77 104 118
-2.451505 -0.046744 4.895898 77 104 118
-6.213907 -3.493023 12.640798 41 76 89
-2.932340 -2.237585 5.914059 84 113 120
-2.918279 -2.243643 5.926256 98 126 133
-3.868725 1.460321 8.116257 174 186 190
-2.787900 -2.336812 5.862335 105 133 140
-2.791075 -2.302152 5.962056 107 129 134
-2.613181 -2.587706 5.635322 51 80 85
-2.614404 -2.577849 5.647014 59 89 94
-3.732635 1.471639 8.120602 170 182 186
-2.622202 -2.575825 5.684130 85 108 116
-2.617805 -2.570824 5.694284 67 93 99
-2.263985 0.024999 4.907306 101 120 128
-2.629442 -2.575546 5.732608 45 71 83
-2.899596 -1.623550 6.340861 51 76 80
-2.778931 -2.035715 6.129761 110 129 136
-2.148286 -0.092812 4.729858 146 161 164
-2.764599 -1.962539 6.151403 101 125 131
-3.629800 1.477534 8.108806 174 186 190
-2.152144 -0.043104 4.761317 148 167 172
-2.136935 -0.082046 4.736833 74 102 109
-2.742613 -1.990739 6.150539 44 70 77
-2.741316 -1.992484 6.195360 28 50 56
-2.096268 -0.118103 4.701157 130 158 165
-2.708236 -2.000796 6.148397 101 123 129
-2.106364 -0.010535 4.750358 76 102 108
-2.090598 -0.062407 4.727878 74 104 115
-2.661715 -2.011554 6.168536 121 148 152
-2.067041 -0.012680 4.755539 152 172 177
-2.067041 -0.012680 4.755539 152 172 177
-2.046683 -0.051609 4.719563 70 97 107
-2.046683 -0.051609 4.719563 70 97 107
-2.201471 0.337941 5.087315 99 128 137
-2.496021 -2.313714 5.870358 120 151 160
-2.489699 -2.279598 5.880883 60 88 95
-2.670975 -1.795447 6.328785 108 132 138
-2.578508 -2.083771 6.113195 71 99 106
-1.984177 -0.072872 4.686681 81 113 124
-1.984177 -0.072872 4.686681 81 113 124
-3.348682 1.495841 8.105243 165 180 183
-3.324449 1.496652 8.097330 166 181 183
-1.922235 -0.573321 4.640253 89 115 121
-2.105352 0.402189 5.099359 142 161 168
-1.934970 -0.081732 4.682168 66 96 107
-3.285864 1.496243 8.090771 163 177 183
-2.600389 -1.699994 6.380294 49 71 77
-1.915044 -0.027844 4.686912 69 100 109
-1.862444 -0.281603 4.556319 60 95 105
-2.183166 -2.609364 5.382412 61 90 97
-2.062806 0.383845 5.092103 68 98 109
-2.556096 -1.700221 6.367564 111 136 140
-2.558308 -1.880985 6.380133 39 61 66
-1.991191 -2.912366 4.942304 83 107 113
-2.572731 -1.921665 6.427258 92 128 138
-2.509429 -1.758750 6.320897 93 122 129
-2.513712 -1.745871 6.336918 101 133 139
-2.179163 -2.600821 5.497230 38 70 76
-2.179163 -2.600821 5.497230 38 70 76
-2.509713 -1.716514 6.349433 126 155 160
-2.099602 0.640911 5.286970 49 77 88
-2.505354 -1.722673 6.374283 66 91 95
-2.361352 -2.018406 6.083247 51 87 97
-1.824677 0.012055 4.674791 138 157 164
-2.354824 -2.026867 6.083876 121 150 155
-2.059364 0.618152 5.294663 132 155 163
-1.813499 -0.064760 4.656712 58 87 96
-2.349048 -2.033670 6.085281 76 105 110
-2.357370 -2.009463 6.117221 130 159 166
-1.908488 -2.899451 4.944721 115 134 139
-1.909164 -2.901518 4.947278 115 134 139
-1.806481 0.041515 4.662709 130 149 156
-2.361262 -2.012086 6.157801 122 151 156
-1.894548 -2.909412 4.944291 37 59 65
-1.786672 -0.549383 4.649792 35 47 51
-1.785837 -0.036346 4.666016 104 132 139
-1.743244 -0.593778 4.609132 103 134 143
-1.885745 -2.923931 5.010838 26 38 42
-1.737439 -0.014632 4.658427 112 140 147
-1.737504 0.059476 4.692047 69 100 109
-1.737504 0.059476 4.692047 69 100 109
-1.723323 0.009770 4.693076 64 87 95
-1.950820 -2.485203 5.347820 45 65 70
-1.988036 0.648949 5.453227 62 93 102
-1.849741 -2.901937 5.075598 45 71 78
-1.850476 -2.888590 5.089132 44 68 74
-1.711391 0.004570 4.692309 64 90 97
-1.978291 0.653354 5.473333 126 152 158
-1.649283 -0.596467 4.553596 88 114 120
-1.649283 -0.596467 4.553596 88 114 120
-1.747189 0.298189 4.833798 64 94 105
-1.655100 -0.068135 4.622647 61 85 91
-2.232964 -1.789636 6.323616 53 79 85
-2.232964 -1.789636 6.323616 53 79 85
-1.932196 0.622976 5.458252 57 89 100
-1.932196 0.622976 5.458252 57 89 100
-1.652137 0.017404 4.667993 35 57 68
-1.631351 -0.001382 4.656510 121 149 156
-1.634464 0.009422 4.671957 60 87 101
-1.631727 0.010637 4.666023 59 88 102
-2.211919 -1.712209 6.384756 130 159 164
-2.218408 -1.708339 6.412778 46 80 86
-1.614901 -0.053088 4.636760 62 90 101
-2.162216 -1.729858 6.361108 133 157 163
-1.579802 -0.028682 4.620342 59 78 85
-2.121623 -1.787450 6.316265 54 83 88
-1.837646 -2.234311 5.540713 106 129 131
-1.518952 -0.139440 4.591363 57 79 85
-1.518952 -0.139440 4.591363 57 79 85
-1.493026 0.071827 4.663130 86 113 123
-1.484496 0.059966 4.642102 135 159 165
-1.989156 -1.778805 6.309270 54 82 89
-1.452684 -0.082900 4.588985 116 145 154
-1.452684 -0.082900 4.588985 116 145 154
-1.436717 -0.243670 4.555534 42 68 75
-1.436717 -0.243670 4.555534 42 68 75
-1.428648 -0.010434 4.588248 55 83 94
-1.675364 -2.534396 5.421451 119 144 148
-1.402569 0.001250 4.554162 130 152 158
-1.896585 -1.766814 6.313916 57 83 90
-1.385176 0.115740 4.589432 92 115 123
-1.385176 0.115740 4.589432 92 115 123
-1.369369 0.037916 4.568921 130 150 155
-1.383516 0.135226 4.616977 101 127 134
-1.362002 -0.001865 4.565091 96 122 129
-1.353718 -0.037498 4.547855 109 137 144
-1.852212 -1.776788 6.305732 53 82 89
-1.369555 0.169800 4.645086 94 116 127
-1.342484 0.113015 4.558586 143 165 171
-1.334741 0.027281 4.532221 63 95 101
-1.323243 -0.236906 4.514424 102 128 134
-1.330661 -0.019086 4.544032 123 145 151
-1.310881 -0.003214 4.516612 128 150 155
-1.294100 -0.157013 4.473321 119 138 145
-1.305040 -0.068544 4.515800 52 73 81
-1.303424 -0.267413 4.515517 37 53 60
-1.304763 -0.238352 4.522621 34 52 59
-1.785598 -1.773880 6.254893 65 94 101
-1.381708 0.319118 4.809910 79 107 118
-1.368013 0.299320 4.802708 137 159 164
-1.434588 -2.857133 5.058172 80 108 115
-1.271607 -0.022390 4.479164 56 78 84
-1.275940 0.045468 4.516414 57 83 95
-1.287620 0.115014 4.579220 55 84 91
-1.257875 -0.106701 4.478447 113 133 138
-1.251223 -0.272656 4.470526 117 143 150
-1.246569 -0.311205 4.465921 43 65 76
-1.316446 0.257947 4.730286 132 158 164
-1.273019 0.105574 4.612764 37 55 62
-1.234029 -0.140742 4.469565 42 58 64
-1.252886 0.036934 4.543732 54 79 89
-1.238455 0.000746 4.521795 41 63 69
-1.257872 0.109505 4.608950 115 143 150
-1.222049 -0.197145 4.487767 33 49 56
-1.229964 -0.023757 4.521147 40 58 65
-1.222082 -0.315723 4.500990 24 42 49
-1.343550 -2.933241 4.977381 63 89 96
-1.218004 -0.257110 4.493469 36 52 58
-1.218004 -0.257110 4.493469 36 52 58
-1.220945 0.014353 4.514333 106 130 136
-1.213431 -0.028318 4.514618 92 120 127
-1.188154 -0.166068 4.438416 88 112 118
-1.203213 0.029723 4.501184 78 100 105
-1.202167 -0.060970 4.507913 97 119 125
-1.210731 0.069069 4.556724 127 153 160
-1.199280 -0.011904 4.508581 87 113 119
-1.199280 -0.011904 4.508581 87 113 119
-1.196417 0.005890 4.501841 47 69 75
-1.185849 -0.299923 4.470072 105 137 143
-1.279465 0.338209 4.833091 69 95 102
-1.506122 -2.055604 5.767138 32 54 59
-1.277440 0.384756 4.893949 153 177 183
-1.388199 -2.497327 5.382562 76 112 118
-1.388199 -2.497327 5.382562 76 112 118
-1.232368 0.335250 4.763283 151 171 176
-1.083622 -0.083987 4.403602 55 74 81
-1.077646 -0.157245 4.384459 34 51 60
-1.074949 -0.068846 4.397283 59 78 85
-1.072626 0.152661 4.422693 50 67 76
-1.019223 -0.064254 4.324644 73 93 98
-1.012502 -0.019014 4.322283 82 101 108
-0.949694 -0.186816 4.057344 128 150 156
-0.998851 -0.017121 4.308771 62 86 92
-1.005652 0.201457 4.405959 81 103 109
-1.023414 0.327168 4.490906 67 95 102
-1.006654 0.214865 4.415249 77 103 110
-1.861397 1.350851 8.344757 16 32 39
-1.117421 -2.924556 4.962839 71 95 101
-1.101633 -2.918266 4.967991 125 149 155
-0.986594 0.277528 4.447182 119 147 154
-0.822118 -0.124393 3.874114 67 91 97
-0.807626 -0.125430 3.858963 56 79 87
-0.941550 0.420960 4.578779 51 68 77
-0.930964 0.593390 4.535709 126 151 155
-0.998534 -2.830795 5.011292 80 108 115
-0.992983 -2.842933 5.015671 46 75 84
-0.908026 0.391628 4.570582 117 141 147
-0.773939 0.047937 3.882382 73 98 108
-0.878167 0.265725 4.459752 117 149 160
-0.964551 -2.900596 4.953563 69 96 106
-1.039896 -2.461619 5.357703 111 133 138
-1.016440 -2.536128 5.288463 72 101 106
-0.900629 0.609349 4.668001 114 142 149
-1.014057 -2.523705 5.311399 53 82 91
-0.745586 0.084240 3.875223 84 115 124
-1.018035 -2.478427 5.356465 52 83 92
-0.738025 0.048815 3.859486 143 162 169
-0.738025 0.048815 3.859486 143 162 169
-0.734415 -0.011859 3.841534 58 85 95
-0.850409 0.428072 4.532088 81 99 106
-0.890209 0.845316 4.786874 137 163 170
-0.880864 0.792701 4.746132 61 89 100
-0.704831 -0.100959 3.787541 148 170 176
-1.098815 -1.753960 5.977325 49 78 83
-0.837440 0.418333 4.520272 128 148 153
-0.817667 0.265246 4.424161 78 102 108
-1.096916 -1.631481 6.077047 90 119 124
-0.809469 0.327861 4.446813 50 73 81
-1.078804 -1.716657 6.017578 46 68 74
-0.808706 0.439475 4.488057 64 93 102
-0.808706 0.439475 4.488057 64 93 102
-0.802395 0.348204 4.451634 79 102 110
-1.080873 -1.632037 6.074909 38 62 68
-0.690624 0.025524 3.835681 70 94 100
-1.064520 -1.726293 6.002964 48 73 77
-1.064520 -1.726293 6.002964 48 73 77
-0.800413 0.423438 4.495886 57 78 86
-0.795325 0.415378 4.488319 131 151 156
-0.668299 0.022441 3.827673 131 157 163
-0.811993 0.828194 4.683885 65 92 102
-0.817957 0.760245 4.737177 99 123 129
-0.812564 0.923892 4.718308 142 168 174
-0.805019 0.831628 4.679397 56 82 89
-0.792114 0.661695 4.631278 152 176 182
-0.739060 0.196013 4.317216 95 114 121
-0.739060 0.196013 4.317216 95 114 121
-0.659369 -0.248435 3.838229 95 124 129
-0.749625 0.318251 4.398555 85 108 116
-0.749625 0.318251 4.398555 85 108 116
-0.663934 0.082850 3.871414 103 133 144
-0.663934 0.082850 3.871414 103 133 144
-0.641977 -0.050155 3.750160 137 162 166
-0.641977 -0.050155 3.750160 137 162 166
-0.837945 -2.888905 4.959021 151 165 171
-0.837945 -2.888905 4.959021 151 165 171
-0.799814 0.742730 4.727045 103 131 138
-0.956725 -2.074489 5.698562 54 87 96
-0.650234 0.045932 3.848340 62 91 100
-0.762798 0.629457 4.559869 56 88 99
-0.756797 0.604299 4.529129 94 120 127
-0.747405 0.443996 4.472614 106 135 140
-0.820856 -2.901975 4.944436 148 167 172
-0.811887 -2.895750 4.946825 112 135 143
-0.628748 -0.295113 3.813874 40 59 67
-0.628748 -0.295113 3.813874 40 59 67
-0.810438 -2.879591 4.969360 93 119 126
-0.804026 -2.886201 4.957498 154 165 169
-0.801331 -2.868563 4.965406 154 173 178
-0.762329 0.716540 4.721246 44 65 73
-0.763939 0.728534 4.748012 104 123 130
-0.716255 0.509132 4.464232 65 84 91
-0.788946 -2.902439 4.935165 85 107 113
-0.712587 0.510477 4.451815 61 80 87
-0.815844 -2.679557 5.123351 152 169 172
-0.815844 -2.679557 5.123351 152 169 172
-0.815225 -2.677195 5.129045 156 175 180
-0.707599 0.542421 4.446417 147 167 172
-0.704747 0.406011 4.436087 85 109 115
-0.782793 -2.888205 4.955162 147 166 171
-0.782793 -2.888205 4.955162 147 166 171
-0.702553 0.477986 4.454394 69 98 103
-0.692512 0.529543 4.438368 46 64 71
-0.692512 0.529543 4.438368 46 64 71
-0.692582 0.572062 4.453182 141 160 165
-0.658021 0.183094 4.250621 85 106 114
-0.681994 0.575701 4.444848 86 108 114
-0.753292 -2.885516 4.947734 157 167 174
-0.748194 -2.901842 4.929374 54 80 86
-0.675405 0.600545 4.465862 122 148 154
-0.576481 -0.009388 3.787494 55 80 90
-0.608235 0.099150 4.048494 68 103 117
-0.639980 0.272320 4.314520 97 122 132
-0.653539 0.609206 4.429819 127 147 152
-0.630580 0.337451 4.332024 93 112 117
-0.606020 0.256633 4.277117 98 118 123
-0.604507 0.241342 4.268059 81 100 107
-0.590709 0.216397 4.235176 95 117 122
-0.595044 0.278260 4.271034 99 118 123
-0.586376 0.528329 4.297231 90 111 113
-0.582819 0.421499 4.278569 80 100 105
-0.574194 0.522710 4.281286 86 106 111
-0.648448 0.992984 5.021807 80 112 123
-0.545771 0.421204 4.233783 74 93 100
-0.525121 0.600347 4.245367 99 118 123
-0.525121 0.600347 4.245367 99 118 123
-0.597798 -2.767343 5.011323 139 158 165
-0.501778 0.487221 4.193294 93 117 123
-0.595193 -2.767264 5.011462 124 144 149
-0.587326 -2.772542 5.001737 113 138 142
-0.962817 3.399309 8.354056 105 127 132
-1.045933 3.435537 9.226461 39 60 62
-1.107460 4.020919 9.783318 33 59 65
-1.039528 3.423428 9.180820 39 58 61
-0.574808 -2.824926 4.993610 75 104 111
-0.480015 0.589842 4.184616 99 118 123
-1.091274 4.008555 9.795814 28 52 58
-0.476529 0.581263 4.177598 138 156 157
-1.064941 3.980273 9.738454 33 54 56
-0.561776 0.979537 5.046515 54 85 94
-0.453014 0.649014 4.180237 102 121 126
-0.453014 0.649014 4.180237 102 121 126
-0.445288 0.407043 4.109495 81 97 104
-0.600934 -2.117438 5.609116 50 72 77
-0.600934 -2.117438 5.609116 50 72 77
-0.598079 -2.103165 5.626971 43 65 71
-0.439423 0.395728 4.097591 91 110 117
-0.438245 0.373694 4.086445 102 121 128
-0.523713 -2.844121 4.953072 147 161 167
-0.340356 0.048664 3.206984 150 172 178
-0.421413 0.494767 4.103135 92 111 118
-0.421413 0.494767 4.103135 92 111 118
-0.412933 0.392219 4.064205 89 111 116
-0.412933 0.392219 4.064205 89 111 116
-0.403324 0.290870 3.982009 87 106 113
-0.963628 3.906925 9.826423 32 45 47
-0.403402 0.409385 4.058019 83 104 112
-0.480702 -2.884915 4.910505 140 162 167
-0.384363 0.294551 3.962761 93 112 119
-0.393826 0.465811 4.072653 82 102 107
-0.461508 -2.734260 5.016875 157 169 173
-0.458550 -2.729418 5.021388 91 111 116
-0.891116 4.019409 10.017530 25 40 43
-0.882875 3.938086 9.957139 27 43 49
-0.395894 -0.936313 4.461774 38 54 60
-0.343426 0.316202 3.929148 91 113 119
-0.840755 4.274717 10.169882 51 81 86
-0.330820 0.307613 3.909628 91 113 119
-0.327268 0.531722 4.014070 84 106 112
-0.327268 0.531722 4.014070 84 106 112
-0.313247 0.409341 3.957605 93 112 120
-0.247097 -0.118906 3.087365 125 153 160
-0.301003 0.630188 4.007984 79 98 103
-0.301003 0.630188 4.007984 79 98 103
-0.298820 0.552253 3.988220 75 94 101
-0.298820 0.552253 3.988220 75 94 101
-0.296955 0.585470 3.993979 76 96 101
-0.283015 0.329131 3.891368 92 114 120
-0.224845 -0.077142 3.120575 136 162 169
-0.292202 -2.643550 4.429789 70 88 95
-0.201381 -0.053503 3.122200 138 160 165
-0.196067 -0.056681 3.120478 56 84 95
-0.232681 0.658139 3.952633 92 111 116
-0.183651 -0.038702 3.127405 67 95 102
-0.188171 0.122237 3.326980 117 135 142
-0.256606 -2.853478 4.906449 83 106 114
-0.197329 0.533405 3.895333 77 99 105
-0.245151 -2.859862 4.902310 141 155 161
-0.239484 -2.867911 4.890700 139 155 161
-0.239484 -2.867911 4.890700 139 155 161
-0.173785 0.508544 3.871801 84 104 109
-0.173785 0.508544 3.871801 84 104 109
-0.144012 0.151851 3.575064 55 77 88
-0.141514 0.806524 3.948429 109 128 131
-0.163961 -2.411685 5.274548 100 122 127
-0.160672 -2.478133 5.210140 120 142 147
-0.142147 -2.472120 5.223916 51 75 81
-0.133668 -2.799768 4.936921 34 62 69
-0.096050 0.805534 3.914221 77 99 105
-0.096050 0.805534 3.914221 77 99 105
-0.080185 0.611462 3.812996 142 161 166
-0.065359 -0.039894 3.182521 100 132 138
-0.072592 0.675017 3.817949 80 99 106
-0.041196 0.658672 3.750813 80 104 110
-0.050454 -1.929882 5.676424 47 73 79
-0.044351 -1.963011 5.652895 34 58 64
0.024829 0.833526 3.850386 33 48 51
0.030182 -1.077398 4.097534 34 51 54
0.027534 0.130061 3.511612 76 106 117
0.043275 0.794863 3.810781 61 80 85
0.060580 0.754262 3.782307 43 65 70
0.060580 0.754262 3.782307 43 65 70
0.070786 0.700216 3.754193 62 85 93
0.070786 0.700216 3.754193 62 85 93
0.158908 2.345232 8.024765 44 63 70
0.075878 0.847201 3.858015 51 70 75
0.078118 -1.003328 4.126646 35 49 55
0.078725 -1.005110 4.130292 35 49 55
0.170736 2.374636 8.029274 115 136 138
0.080989 0.842409 3.854284 105 124 129
0.083566 0.788969 3.807316 40 57 60
0.083566 0.788969 3.807316 40 57 60
0.068820 -0.009038 3.178996 125 151 157
0.184300 2.377072 7.985171 102 123 125
0.193152 2.221825 8.177665 31 50 55
0.088184 0.839188 3.850061 56 76 81
0.089811 0.749564 3.780942 101 123 129
0.249049 4.139164 10.104582 30 49 56
0.095617 0.836132 3.851801 100 122 127
0.261909 4.217340 10.037216 55 77 82
0.261909 4.217340 10.037216 55 77 82
0.096120 0.744124 3.781395 52 74 80
0.097115 0.777794 3.803998 96 117 119
0.216795 2.350153 7.936596 109 130 132
0.102762 0.798629 3.818517 49 68 73
0.103994 0.832340 3.845772 33 52 57
0.222503 2.294606 7.984784 89 109 114
0.222503 2.294606 7.984784 89 109 114
0.103692 0.714077 3.765814 49 71 77
0.112738 0.794888 3.819396 96 118 123
0.115085 0.801572 3.823456 43 63 68
0.249847 2.325425 7.932484 43 61 68
0.123586 0.780122 3.808570 43 65 71
0.278163 2.147647 8.164842 102 122 127
0.284803 2.157888 8.146025 19 38 43
0.289729 2.138675 8.142208 49 71 77
0.133443 0.242704 3.645654 59 83 89
0.146286 0.694596 3.768790 55 82 92
0.138834 0.133665 3.537529 76 105 114
0.138834 0.133665 3.537529 76 105 114
0.162576 -0.955366 4.173422 79 104 106
0.388329 3.480688 8.650021 41 60 67
0.376214 2.083090 8.065186 37 58 60
0.177042 0.751541 3.805114 44 70 77
0.412902 3.430724 8.616457 104 125 127
0.264021 -2.057693 5.529752 33 52 57
0.274967 -1.997850 5.602262 44 61 64
0.275906 -2.066913 5.540627 41 60 63
0.275193 -2.059081 5.526576 41 60 63
0.275193 -2.059081 5.526576 41 60 63
0.401029 2.277558 7.843552 30 43 45
0.257598 -2.567678 5.062034 105 122 125
0.433011 2.153932 8.081910 18 28 28
0.421227 2.323067 7.802819 96 119 121
0.226517 0.159974 3.593567 72 100 111
0.277534 -2.609961 4.370091 72 86 92
0.210621 -0.272756 3.144562 76 107 116
0.210621 -0.272756 3.144562 76 107 116
0.327020 -2.833446 4.837897 0 13 19
0.253998 0.160845 3.593004 69 96 106
0.576424 2.406636 7.708486 82 102 107
0.576424 2.406636 7.708486 82 102 107
0.634084 2.362906 7.717478 96 115 118
0.323064 0.798958 3.907312 34 49 52
0.335634 0.795931 3.916968 37 53 59
0.452484 1.290253 5.177881 90 119 128
0.324742 0.200888 3.655644 55 84 98
0.324742 0.200888 3.655644 55 84 98
0.807212 3.751095 8.591619 32 47 50
0.449943 -2.810796 4.814336 44 66 72
0.813173 3.737288 8.595195 81 102 104
0.362600 0.185820 3.610178 88 116 123
0.392089 0.627185 3.881951 37 55 62
0.515665 -2.686640 4.906704 54 71 74
0.517530 -2.674706 4.920219 63 75 79
0.625918 -1.795782 5.692269 40 55 58
0.638490 -1.909451 5.586326 22 34 38
0.638490 -1.909451 5.586326 22 34 38
0.560500 -2.804694 4.797869 51 73 78
0.618565 -2.318959 5.244743 29 46 49
0.616801 -2.439601 5.121120 37 54 57
0.589872 -2.802391 4.794943 53 77 83
0.621548 1.075100 4.837957 91 117 124
0.621548 1.075100 4.837957 91 117 124
0.621548 1.075100 4.837957 91 117 124
0.609054 -2.801649 4.793038 50 70 75
0.618357 -2.784657 4.804731 31 46 49
0.618357 -2.784657 4.804731 31 46 49
0.638961 -2.678325 4.903212 14 29 32
0.638961 -2.678325 4.903212 14 29 32
0.629410 -2.760562 4.822333 60 72 74
0.648700 -2.719722 4.853595 45 64 69
0.517129 0.276955 3.733593 84 113 122
0.517129 0.276955 3.733593 84 113 122
0.622663 -2.454515 4.277219 27 36 39
0.726570 1.092688 4.699653 83 107 113
0.500317 -0.108127 3.163011 82 110 117
0.500088 -0.105177 3.154909 86 114 121
0.500036 -0.082498 3.152267 43 65 71
0.500036 -0.082498 3.152267 43 65 71
0.508644 -0.075865 3.148807 94 120 126
0.517371 -0.155650 3.175407 21 35 41
0.690303 -2.467665 4.271254 73 89 95
0.524445 -0.120767 3.158986 26 41 44
0.767982 1.071110 4.620052 98 126 133
0.806337 1.273161 4.753097 124 152 159
0.666392 0.346435 3.821825 79 110 119
0.823197 1.210191 4.676918 136 157 165
0.860831 1.256061 4.719004 88 110 116
0.842128 1.082837 4.599803 96 125 130
0.867297 1.276806 4.733251 147 171 177
0.874989 1.277473 4.733520 92 115 123
0.745209 0.408303 3.910545 73 105 118
0.883311 1.144191 4.636620 64 93 102
0.769949 0.494785 4.017359 61 80 87
0.948756 1.165921 4.684707 110 138 145
0.882597 0.442649 3.861869 93 122 127
0.901922 0.467150 3.886465 138 162 168
0.906973 0.461821 3.878129 58 83 93
0.813485 0.162385 3.451012 33 45 49
0.989379 -0.388534 4.155458 7 16 20
0.961385 0.489491 3.965714 36 55 60
0.980487 0.519355 3.957455 48 69 77
1.211093 -1.924081 4.852716 22 33 37
1.003907 0.458136 3.959158 108 130 136
1.023013 0.585534 3.818420 128 157 166
0.950112 0.234113 3.486285 52 75 83
1.041303 0.586911 3.817672 71 100 107
1.061150 0.598903 3.844207 123 149 156
1.071211 0.586925 3.822968 76 103 113
1.065817 0.527502 3.798362 38 61 69
1.023399 0.268140 3.642469 125 150 154
1.077597 0.537784 3.814435 59 78 85
1.085311 0.519310 3.805171 50 69 76
1.035721 0.218273 3.618856 38 54 61
1.064568 0.310150 3.702776 52 73 81
1.065023 0.301148 3.700437 49 70 78
1.068224 0.318792 3.708396 116 141 145
1.097700 0.436766 3.809884 50 79 88
1.109032 0.459194 3.804727 45 69 81
1.292765 0.783502 4.447718 86 114 125
1.081075 0.353535 3.683448 102 121 128
1.081075 0.353535 3.683448 102 121 128
1.129982 0.591549 3.824486 136 162 168
1.127791 0.543200 3.810788 51 76 86
1.104844 0.288580 3.709158 35 46 54
1.154784 0.601915 3.832073 132 157 161
1.150128 0.416532 3.791138 119 141 147
1.125286 0.277403 3.702029 105 124 131
1.122442 0.376957 3.653885 122 146 152
1.118661 0.191649 3.642968 31 42 46
1.118661 0.191649 3.642968 31 42 46
1.118661 0.191649 3.642968 31 42 46
2.585146 3.670868 8.417492 49 61 65
1.265282 0.704673 4.079211 141 165 171
1.270196 0.713062 4.026642 95 115 120
1.279341 0.724191 4.014114 85 109 115
1.225219 0.507982 3.831467 48 64 71
1.247277 0.607811 3.902227 98 124 130
1.157521 0.319863 3.613382 113 137 143
1.172948 0.171263 3.649775 54 74 85
1.284321 0.697967 3.995067 143 163 168
1.166136 0.002105 3.612260 28 44 50
1.258887 0.576532 3.881702 94 120 127
1.286378 0.666038 3.965336 113 137 143
1.550188 1.233099 4.767741 99 118 126
1.460004 0.980552 4.459904 85 113 120
1.257266 0.484292 3.832574 91 113 118
1.253585 0.467587 3.820734 91 113 119
1.313524 0.763588 3.999393 143 164 172
1.307394 0.719781 3.979782 124 148 154
1.309413 0.740638 3.983517 122 147 151
1.538601 1.121324 4.694047 72 99 109
1.318819 0.776674 4.008345 89 118 127
1.314676 0.756050 3.989756 70 96 108
1.255067 0.446555 3.790329 121 141 146
2.485550 2.388763 7.590811 33 52 57
1.325873 0.783218 4.004564 55 82 96
1.262891 0.462993 3.805635 38 56 63
1.327824 0.776272 3.999555 143 169 175
1.545542 1.110752 4.662432 84 110 117
1.272031 0.580905 3.819257 96 121 125
1.464086 0.942184 4.402846 80 107 117
2.904939 3.669857 8.784123 92 109 112
1.200370 0.164119 3.565584 54 81 91
1.474725 0.961466 4.392001 82 110 117
2.480491 3.012665 7.408428 95 112 115
1.237584 0.395026 3.649477 121 143 149
1.237584 0.395026 3.649477 121 143 149
1.310060 0.519670 3.849198 101 123 129
1.636267 1.350672 4.812628 128 151 159
1.314012 0.549539 3.853148 40 59 66
1.494535 0.988895 4.385725 83 109 115
1.226589 0.196272 3.574528 121 143 149
1.613678 1.287742 4.731527 91 119 126
1.283669 0.607969 3.749519 103 125 130
1.215518 0.148575 3.545122 123 144 152
1.215578 0.171288 3.546524 54 79 89
1.215578 0.171288 3.546524 54 79 89
1.502154 0.998308 4.381326 70 98 109
1.234525 0.192490 3.554442 73 99 106
1.328124 0.539068 3.830564 34 53 58
1.240604 0.390918 3.560857 42 68 80
1.239803 0.032809 3.564161 88 111 119
1.243209 0.202111 3.569164 116 138 144
1.234440 0.161021 3.537233 120 142 148
1.671169 1.348712 4.800311 65 91 103
1.246045 0.022590 3.566382 70 94 100
1.233217 -0.092510 3.520705 108 127 134
1.293887 0.699458 3.682661 61 82 90
1.246568 0.179023 3.544826 109 133 139
1.244035 -0.228922 3.538940 83 105 111
1.244035 -0.149226 3.532834 34 52 63
1.314841 0.776037 3.713478 66 93 103
1.256882 -0.224499 3.542409 99 122 130
1.353079 0.500879 3.803680 99 119 124
1.322778 0.766985 3.702122 128 147 154
1.269060 0.178130 3.550845 51 75 87
1.258974 -0.143612 3.519443 34 49 58
1.277038 -0.025548 3.563558 30 48 55
1.366196 0.515580 3.816999 31 42 46
1.260916 -0.177786 3.516433 113 135 141
1.711322 1.330466 4.761121 75 104 118
1.282730 0.031214 3.543083 79 105 112
1.290131 0.183751 3.553172 118 142 148
1.339778 0.734005 3.687337 47 65 72
1.291161 0.036478 3.541192 18 34 40
1.288277 0.056665 3.530522 100 126 133
1.307909 0.003710 3.578727 35 48 56
1.741323 1.291685 4.710358 84 112 119
1.303395 0.068410 3.507934 50 76 83
1.303395 0.068410 3.507934 50 76 83
1.301766 0.089912 3.501796 98 122 128
2.747663 2.404244 7.433957 91 110 115
2.747663 2.404244 7.433957 91 110 115
1.326242 0.137653 3.537991 40 53 61
1.326779 -0.015785 3.543136 93 117 123
1.775044 1.318531 4.738010 90 118 125
1.319170 0.064572 3.501721 113 137 143
1.328079 0.185294 3.514637 95 118 126
1.368127 0.388215 3.608961 107 129 134
1.341502 0.085943 3.510986 130 150 155
1.407416 0.651044 3.671654 95 118 126
1.416433 -0.708097 3.708494 26 40 46
1.409445 0.701964 3.670747 54 73 80
1.418306 0.515277 3.693425 126 145 152
1.827356 1.354519 4.770650 95 117 123
1.419995 0.573656 3.689908 33 45 49
1.331556 0.048758 3.455980 124 146 152
1.420378 0.691032 3.681616 36 57 65
1.841946 1.365433 4.786352 113 142 147
1.845736 1.355662 4.773251 43 74 83
1.397833 0.351503 3.597502 25 34 37
2.997319 3.209787 7.802913 89 101 101
1.855245 1.376203 4.793235 137 157 162
1.427225 0.760678 3.656318 90 114 120
1.398182 0.397901 3.583973 98 122 128
1.416850 0.454293 3.628337 54 73 80
1.416850 0.454293 3.628337 54 73 80
3.007091 3.111516 7.776279 22 32 32
1.365551 0.120742 3.469746 115 137 143
1.433166 0.505669 3.640413 40 59 67
1.841046 1.284280 4.688565 43 74 83
2.994607 2.978043 7.682159 32 41 45
2.994607 2.978043 7.682159 32 41 45
2.983225 2.988270 7.651762 90 102 102
2.983225 2.988270 7.651762 90 102 102
1.393611 0.309200 3.528033 75 97 108
3.000017 2.994251 7.674760 31 40 43
1.832565 1.261357 4.649849 39 67 74
1.611773 0.924009 4.078525 59 85 97
2.986487 2.989915 7.630591 17 27 27
2.986487 2.989915 7.630591 17 27 27
1.614947 0.913872 4.078085 48 70 81
1.822146 1.232148 4.612402 108 140 151
1.625389 0.951180 4.104570 132 156 162
1.399347 0.281236 3.525811 114 136 142
1.378308 0.211454 3.465738 60 86 93
1.842216 1.241675 4.649208 30 61 70
1.817142 1.201835 4.576093 119 152 161
2.992717 3.393054 7.590150 90 103 105
3.000133 3.350827 7.594432 20 25 26
3.000133 3.350827 7.594432 20 25 26
1.451561 0.520580 3.622704 93 116 124
2.981781 3.289935 7.521986 28 35 38
1.814848 1.178690 4.532361 29 60 69
1.814848 1.178690 4.532361 29 60 69
1.393477 0.234763 3.463914 51 73 85
1.626641 0.903402 4.053709 116 135 142
1.845703 1.451980 4.605857 105 129 135
1.642999 0.929965 4.082950 63 83 94
1.466935 0.532728 3.641100 116 138 144
1.400336 0.084000 3.452597 52 71 76
1.807558 1.129809 4.478178 111 137 144
1.653470 0.942881 4.087702 52 79 89
1.635792 0.879507 4.040676 25 46 54
1.422011 0.305331 3.504421 70 93 101
1.811726 1.116277 4.471652 104 133 140
1.823358 1.135521 4.498323 19 48 57
1.644567 0.897256 4.044860 43 65 76
1.808679 1.094612 4.455562 98 123 133
1.804428 1.071439 4.442245 112 138 145
1.469508 0.497656 3.598860 64 92 99
1.495157 0.556959 3.662571 107 126 131
1.804221 1.060764 4.430276 122 145 153
1.655800 0.907931 4.052737 75 98 106
1.804567 1.049562 4.418983 114 136 147
1.504232 0.617520 3.664011 46 62 68
1.946392 1.748016 4.757885 154 171 174
1.432062 -0.385436 3.492644 38 56 63
1.482123 0.498372 3.598313 106 128 133
1.821000 1.081304 4.434649 136 158 163
1.479201 0.424214 3.575199 96 122 129
1.437536 0.263689 3.474823 37 55 62
1.563471 0.768555 3.767002 126 150 156
1.971216 1.791720 4.761079 127 146 151
1.489832 0.406303 3.566943 104 126 132
1.524192 0.503328 3.655550 32 43 47
1.525701 0.527610 3.645110 111 127 133
1.487638 -0.154962 3.547623 96 120 126
1.441214 -0.400770 3.434696 51 72 80
1.441214 -0.400770 3.434696 51 72 80
1.524527 0.513247 3.625248 100 119 124
1.459456 0.113173 3.469661 126 145 150
1.994679 1.790424 4.759135 71 87 93
1.535213 0.710314 3.644805 63 84 92
1.535213 0.710314 3.644805 63 84 92
1.535213 0.710314 3.644805 63 84 92
1.540385 0.723588 3.649755 124 146 152
2.000039 1.789897 4.758912 145 164 169
1.537943 0.503994 3.604266 49 70 78
1.539311 0.496394 3.603778 92 114 120
1.539311 0.496394 3.603778 92 114 120
1.554886 0.456261 3.634213 25 34 38
1.579543 0.736716 3.685021 55 75 86
1.574920 0.587030 3.670300 104 124 129
1.575089 0.577056 3.658157 68 89 97
1.504857 -0.250040 3.493244 95 119 125
1.554863 0.514076 3.601421 39 56 65
1.554863 0.514076 3.601421 39 56 65
1.559543 0.508189 3.599608 115 133 140
1.462558 -0.423058 3.371083 48 73 83
1.598713 0.737821 3.678315 49 77 88
1.570824 0.523909 3.600518 48 66 77
1.571591 0.497043 3.599990 38 55 64
1.474247 -0.400366 3.379019 54 78 84
1.604376 0.721689 3.669254 69 91 102
1.604376 0.721689 3.669254 69 91 102
2.029134 1.560406 4.588561 87 111 117
1.520482 -0.317657 3.408924 66 88 99
1.498662 -0.455567 3.349305 63 84 92
2.121929 1.801783 4.742640 131 153 159
2.113289 1.757307 4.714597 85 108 116
2.071100 1.594930 4.603391 81 107 113
2.071100 1.594930 4.603391 81 107 113
1.624984 0.275711 3.596742 98 122 128
1.604818 0.225964 3.535216 60 82 93
2.135311 1.767889 4.716304 82 111 116
2.019709 1.366287 4.447473 89 115 121
1.524845 -0.496254 3.325458 55 79 85
1.524845 -0.496254 3.325458 55 79 85
2.140477 1.714875 4.678223 86 112 118
1.694664 0.544077 3.672345 36 46 46
1.565321 -0.337391 3.392775 34 57 65
1.667561 0.285414 3.611081 83 102 109
1.652310 0.249148 3.566097 51 67 74
2.119792 1.573844 4.583947 79 110 119
1.543027 -0.489204 3.326316 48 73 83
1.750060 0.649987 3.764516 62 86 92
1.750060 0.649987 3.764516 62 86 92
2.136947 1.614754 4.606827 87 111 117
2.158859 1.675380 4.649389 85 107 113
1.737640 0.483592 3.728328 13 20 23
1.727010 0.451655 3.700111 24 30 29
2.174456 1.690925 4.655302 87 113 119
1.804823 0.763373 3.841795 151 171 176
1.705569 -0.003890 3.620648 14 17 21
2.198786 1.719836 4.672281 93 117 123
1.718425 0.287699 3.638798 35 40 41
1.626538 -0.256417 3.441721 60 79 86
1.686949 -0.118059 3.553839 66 75 79
1.698818 0.240689 3.573859 86 102 108
1.610310 -0.345382 3.380716 46 67 75
2.081581 1.286321 4.379856 95 118 126
1.924968 1.168629 4.041084 151 167 173
1.736041 0.338743 3.630799 96 115 118
1.753389 0.506361 3.648377 133 152 157
1.716529 0.226451 3.571370 109 124 126
1.685586 -0.184386 3.496529 17 24 27
2.175674 1.475760 4.501973 79 107 114
1.647942 -0.314329 3.389617 113 129 135
1.830193 -0.300893 3.776484 101 120 127
2.145022 1.356178 4.419128 74 102 109
2.147383 1.351386 4.416405 135 161 167
1.916829 1.026823 3.931622 93 113 118
1.916829 1.026823 3.931622 93 113 118
1.645513 -0.348260 3.374033 110 130 135
1.645513 -0.348260 3.374033 110 130 135
1.658130 -0.309301 3.393556 40 58 65
1.698238 0.111793 3.472085 111 132 134
1.619280 -0.493945 3.313941 91 119 126
1.649532 -0.348400 3.370712 93 115 121
1.663587 -0.301105 3.398536 94 110 117
1.620830 -0.494263 3.308738 115 138 146
1.663118 -0.317381 3.389452 88 107 115
1.664218 -0.313396 3.390135 99 118 125
1.650785 -0.376153 3.360869 82 106 112
1.659468 -0.334741 3.379034 86 105 112
2.212017 1.498611 4.510957 87 113 119
1.651203 -0.401234 3.347893 86 109 117
1.649598 -0.414128 3.344191 42 60 67
1.659939 -0.373891 3.362575 100 118 129
1.646477 -0.553248 3.330753 30 41 45
1.915492 0.945530 3.871170 95 115 120
1.658452 -0.408604 3.350318 74 91 100
1.990738 1.163260 4.016811 94 116 122
1.658524 -0.427884 3.340024 75 90 99
1.924857 0.953010 3.874688 93 117 123
1.654566 -0.440688 3.328178 86 105 112
1.657664 -0.434939 3.333564 79 95 102
1.642871 -0.499576 3.301424 87 109 115
2.212745 1.413119 4.450570 86 115 120
1.654402 -0.520500 3.304108 16 26 26
1.935023 0.932193 3.857527 85 108 116
1.982052 1.064557 3.947497 89 118 125
1.761127 0.026167 3.495745 45 69 75
1.969347 1.006496 3.907977 97 123 130
1.664435 -0.505491 3.300198 109 127 128
2.352979 1.765385 4.679246 81 107 114
1.952075 0.940447 3.862183 88 112 118
1.699230 -0.215838 3.353760 69 93 99
2.314054 1.619120 4.582340 92 117 121
1.744586 -0.067950 3.445735 110 134 140
2.225924 1.339173 4.394157 81 110 117
1.711503 0.152614 3.361265 139 157 158
1.978124 0.974716 3.883693 83 107 113
1.978124 0.974716 3.883693 83 107 113
2.028926 1.125223 3.984387 69 97 104
2.381313 1.784162 4.688211 83 111 118
2.318802 1.589907 4.559687 94 116 122
1.759137 0.243991 3.429857 128 144 150
1.902928 0.729187 3.711596 79 103 109
1.902928 0.729187 3.711596 79 103 109
2.250674 1.334585 4.387051 89 113 119
1.724411 0.161663 3.346064 81 105 111
1.724411 0.161663 3.346064 81 105 111
2.362557 1.657813 4.600977 77 103 109
1.719790 0.131375 3.325340 132 154 160
2.059645 1.132638 3.983532 91 113 119
1.682829 -0.688777 3.251766 87 116 121
2.249899 1.285749 4.351079 87 116 123
2.249899 1.285749 4.351079 87 116 123
2.316682 1.476883 4.479596 136 155 162
2.316682 1.476883 4.479596 136 155 162
2.054415 1.096449 3.959208 73 102 111
2.281959 1.370717 4.405467 81 107 113
2.318258 1.473204 4.473929 91 111 116
2.318258 1.473204 4.473929 91 111 116
1.680160 -0.678586 3.232144 91 117 123
2.276738 1.343917 4.388009 97 122 126
2.267688 1.301333 4.359504 84 110 117
2.073185 1.124244 3.975524 90 117 121
2.438695 1.786444 4.682071 74 97 105
2.431227 1.752643 4.658924 88 114 121
2.357029 1.523512 4.506577 93 114 122
2.093715 1.151441 3.988697 138 160 165
2.442228 1.761866 4.663531 79 105 112
2.330631 1.438357 4.446935 84 113 118
1.815712 0.012063 3.451891 41 55 61
1.815712 0.012063 3.451891 41 55 61
2.098441 1.149519 3.989661 87 113 119
2.398047 1.623280 4.570075 84 108 114
2.077564 1.083163 3.947468 82 108 114
1.884292 0.545001 3.575327 92 112 117
2.078844 1.079198 3.944137 137 156 163
1.908511 0.588031 3.604763 82 106 112
1.908511 0.588031 3.604763 82 106 112
1.823313 -0.007417 3.445105 114 139 143
2.334154 1.400891 4.420875 85 111 118
1.949560 0.692622 3.677723 88 114 121
1.915726 0.589650 3.604894 85 108 116
2.457060 1.730320 4.638509 87 113 119
2.013430 0.849580 3.783857 91 117 124
2.122026 1.157851 3.989823 99 123 129
2.332361 1.363914 4.394828 78 104 110
2.361266 1.439867 4.442900 86 114 121
2.325231 1.315916 4.359623 85 113 120
2.141843 1.168396 3.994354 73 97 103
2.445243 1.634301 4.571300 83 106 114
2.144434 1.156240 3.985747 73 95 101
2.123091 1.088736 3.941369 89 113 119
2.407106 1.493312 4.475356 94 116 122
2.433389 1.552336 4.514930 82 105 113
1.773255 0.131682 3.269864 131 146 148
1.990824 0.698583 3.675626 86 112 119
1.741838 -0.309748 3.208931 79 105 111
1.741838 -0.309748 3.208931 79 105 111
1.889091 0.407676 3.469187 85 109 115
1.846188 0.288072 3.382419 82 104 110
1.970629 0.610363 3.611107 95 116 124
1.970629 0.610363 3.611107 95 116 124
1.999819 0.684500 3.662563 95 119 125
1.999819 0.684500 3.662563 95 119 125
1.834120 0.250103 3.354479 96 115 122
2.022149 0.738208 3.699437 88 114 121
2.157777 1.109281 3.950096 135 159 165
2.011511 0.703200 3.675195 92 116 122
2.185866 1.168501 3.986854 74 96 101
2.185866 1.168501 3.986854 74 96 101
2.490958 1.623433 4.554611 86 112 119
1.805304 0.122538 3.274803 39 60 68
2.143451 1.030922 3.895390 82 110 117
2.134747 0.997809 3.871238 87 111 117
2.524644 1.679233 4.587318 74 98 104
2.524644 1.679233 4.587318 74 98 104
2.422027 1.385242 4.394194 81 105 111
2.198177 1.152077 3.974944 64 92 99
2.054447 0.753470 3.704329 91 117 124
2.054447 0.753470 3.704329 91 117 124
1.826164 0.162319 3.286960 83 107 113
2.578224 1.804138 4.666950 84 112 119
1.873683 0.279664 3.371569 84 110 117
1.992608 0.584093 3.585128 86 115 122
2.493729 1.541454 4.497723 85 108 116
2.123922 0.921553 3.818731 68 96 103
1.910635 0.362860 3.429855 86 114 121
2.111530 0.889672 3.796456 90 114 120
1.958719 0.480937 3.514354 84 110 117
2.215638 1.165242 3.979632 85 111 118
2.179512 1.062859 3.912898 84 116 127
2.179512 1.062859 3.912898 84 116 127
2.065971 0.754869 3.703720 89 115 121
2.423393 1.330018 4.354163 97 119 125
2.225671 1.177578 3.986127 95 117 123
2.225671 1.177578 3.986127 95 117 123
2.145042 0.957510 3.839380 89 112 120
1.896445 0.297393 3.382553 85 108 116
2.227976 1.168038 3.981250 92 116 122
1.761468 -0.392066 3.137191 61 83 89
2.191432 1.047581 3.897655 94 118 124
2.038467 0.631549 3.615176 85 111 118
1.691310 -0.561819 2.991794 121 143 149
1.862518 0.169273 3.287077 79 102 110
2.207780 1.043210 3.894189 82 105 113
2.209689 1.038990 3.891075 136 158 163
2.162747 0.916632 3.806088 87 113 119
2.162747 0.916632 3.806088 87 113 119
2.231032 1.092567 3.925319 85 112 122
2.492737 1.405144 4.397117 80 106 113
2.492737 1.405144 4.397117 80 106 113
2.084308 0.703205 3.660793 98 120 126
2.249039 1.128438 3.947722 86 112 118
1.831158 -0.287287 3.209277 85 108 116
2.264467 1.161104 3.968551 75 101 108
2.200728 0.989208 3.853995 93 117 123
2.200728 0.989208 3.853995 93 117 123
2.521225 1.445170 4.420333 74 101 111
2.521225 1.445170 4.420333 74 101 111
2.248985 1.105020 3.930288 91 117 123
2.238178 1.049705 3.892327 82 106 112
1.983965 0.392642 3.439869 81 104 112
2.182983 0.896234 3.786897 69 97 104
1.921848 0.225667 3.320250 79 107 114
2.271178 1.112888 3.931719 79 102 110
2.523377 1.379908 4.370409 83 107 113
2.576551 1.505697 4.455553 76 104 111
2.288995 1.123898 3.936718 133 155 161
2.308259 1.169436 3.967338 90 110 115
2.676094 1.747496 4.611774 70 98 105
2.289975 1.120956 3.932097 85 108 116
2.555030 1.411437 4.390174 83 107 113
1.994032 0.352598 3.407981 86 112 118
2.547747 1.385767 4.371551 68 94 101
2.547747 1.385767 4.371551 68 94 101
1.921601 0.157718 3.265752 89 111 117
2.550952 1.350442 4.346683 83 106 114
2.662334 1.638105 4.537140 63 85 96
2.083917 0.539873 3.536073 89 117 124
2.721143 1.781564 4.633466 86 97 105
2.147381 0.689330 3.638110 86 115 122
2.003284 0.332025 3.388361 83 108 118
2.173049 0.748604 3.679068 89 111 117
2.729838 1.791120 4.639330 6 13 16
2.729838 1.791120 4.639330 6 13 16
2.715314 1.753826 4.612628 85 103 110
2.088724 0.532911 3.528494 93 115 121
2.206021 0.821338 3.727909 86 109 117
2.339373 1.162340 3.955492 78 101 109
2.339373 1.162340 3.955492 78 101 109
1.973615 0.245728 3.325309 84 106 112
1.980737 0.263028 3.336254 78 106 113
2.703928 1.705973 4.575734 90 109 116
2.712012 1.720289 4.587983 86 102 109
2.009978 0.325765 3.382902 92 114 119
2.308282 1.066584 3.891914 79 103 109
2.683911 1.621595 4.520205 48 69 77
2.707173 1.673817 4.558210 80 93 101
2.639415 1.499685 4.441123 73 101 108
2.569693 1.323129 4.323424 72 101 110
2.648869 1.513808 4.445222 68 97 106
2.662505 1.531173 4.456642 61 87 94
2.699878 1.621672 4.518927 74 88 94
2.722646 1.691819 4.555955 97 110 112
2.298076 0.981073 3.830036 90 114 120
2.016649 0.289576 3.352964 84 113 118
2.694809 1.604923 4.503659 87 103 109
2.367667 1.148695 3.940656 95 117 123
1.964047 0.162220 3.260002 95 113 120
2.694723 1.593465 4.496667 84 102 109
2.315622 1.013853 3.851970 85 111 118
2.348642 1.093229 3.904220 89 113 119
2.348642 1.093229 3.904220 89 113 119
2.338580 1.065378 3.885968 88 112 118
2.702199 1.602776 4.502797 16 25 28
2.696549 1.581732 4.492893 92 111 116
2.691773 1.564297 4.476093 89 105 112
2.230309 0.781738 3.694805 69 97 104
2.685827 1.531580 4.450772 93 109 115
2.278224 0.885252 3.761985 88 112 118
1.994423 -0.152680 3.290662 81 101 106
2.350853 1.061682 3.880940 92 115 123
2.674784 1.490232 4.426145 54 80 87
2.674784 1.490232 4.426145 54 80 87
2.379862 1.133461 3.927088 97 119 125
2.645823 1.416188 4.375795 59 88 97
2.348840 1.052309 3.873849 95 118 126
2.100661 0.442608 3.457254 89 108 115
2.100661 0.442608 3.457254 89 108 115
2.691466 1.526751 4.445788 16 27 31
2.691466 1.526751 4.445788 16 27 31
2.684850 1.498599 4.429904 82 95 103
2.681696 1.473306 4.414730 91 110 115
2.318006 0.951181 3.802547 86 111 121
2.680377 1.460074 4.403558 100 117 126
2.332278 0.976411 3.819875 141 160 165
1.998162 0.172408 3.261472 92 116 122
2.688890 1.470070 4.411537 13 23 30
1.965142 -0.260568 3.206874 82 106 112
2.681209 1.452272 4.391362 6 18 24
2.169787 0.560246 3.535187 88 110 116
2.169787 0.560246 3.535187 88 110 116
2.681122 1.437230 4.384094 8 19 23
2.354299 0.999895 3.835448 83 112 119
2.663935 1.393961 4.351290 87 105 112
2.673739 1.409199 4.366937 87 103 110
2.670422 1.392817 4.354538 81 97 104
2.293990 0.841278 3.726191 89 111 117
2.293990 0.841278 3.726191 89 111 117
2.668189 1.383152 4.345577 74 90 96
2.669187 1.366853 4.337958 84 100 107
2.017933 0.175636 3.261799 85 108 116
2.677614 1.379118 4.346760 9 21 25
2.677614 1.379118 4.346760 9 21 25
2.663064 1.348993 4.320392 85 98 106
2.671210 1.361561 4.329201 7 18 22
2.671210 1.361561 4.329201 7 18 22
2.323811 0.877528 3.748483 83 107 113
2.323811 0.877528 3.748483 83 107 113
2.667614 1.343078 4.313687 9 18 22
2.661363 1.320801 4.303288 86 99 107
2.243622 0.681602 3.615166 86 108 114
2.446304 1.169611 3.940358 82 106 112
2.446304 1.169611 3.940358 82 106 112
2.304623 0.807909 3.699637 88 108 113
2.248609 0.665916 3.601083 84 108 114
2.418572 1.064859 3.870325 78 104 111
2.418572 1.064859 3.870325 78 104 111
2.243848 0.641543 3.583693 98 120 126
2.026926 0.142663 3.231814 130 145 148
2.132382 0.363468 3.388164 89 115 122
2.288059 0.723135 3.637881 85 106 114
2.288059 0.723135 3.637881 85 106 114
2.253371 0.637985 3.580453 89 112 120
2.054259 0.178996 3.257440 88 112 118
2.174477 0.448185 3.449187 92 114 120
2.259377 0.645817 3.583068 94 118 124
2.343161 0.823020 3.703220 90 113 121
2.343161 0.823020 3.703220 90 113 121
2.409086 0.976475 3.807826 79 105 112
2.505394 1.200424 3.953733 78 106 113
2.108342 0.267284 3.317046 84 108 114
2.108342 0.267284 3.317046 84 108 114
2.402091 0.942044 3.781843 96 115 120
2.296926 0.691125 3.612363 87 113 120
2.291674 0.677158 3.601922 91 113 118
2.459524 1.056747 3.856376 84 112 119
2.537208 1.204734 3.951879 128 150 156
2.216378 0.449308 3.440263 89 115 121
2.216378 0.449308 3.440263 89 115 121
2.103495 0.193912 3.259754 86 110 116
2.171415 0.343766 3.364850 84 113 118
2.430018 0.928019 3.765956 88 112 118
2.172918 0.336296 3.358739 74 101 111
2.191542 0.374472 3.387379 59 83 89
2.191542 0.374472 3.387379 59 83 89
2.452232 0.968283 3.792460 93 115 121
2.428005 0.892337 3.742146 91 114 122
2.282611 0.541024 3.499066 90 114 120
2.201476 0.346082 3.361777 87 106 113
2.154575 0.236869 3.284030 92 114 120
2.326271 0.616878 3.548454 91 110 117
2.523737 1.057837 3.846246 81 105 111
2.442621 0.868734 3.720347 85 107 113
2.489136 0.960894 3.780249 96 118 124
2.489136 0.960894 3.780249 96 118 124
2.584447 1.178640 3.923859 66 88 94
2.133952 0.155686 3.223190 86 108 114
2.133952 0.155686 3.223190 86 108 114
2.203331 0.302035 3.325918 80 103 111
2.498098 0.959318 3.777603 87 110 118
2.587710 1.154484 3.905256 67 95 102
2.486047 0.903045 3.737702 88 107 114
2.043606 -0.406446 3.066844 83 104 112
2.462571 0.842546 3.695823 82 108 114
2.462571 0.842546 3.695823 82 108 114
2.597874 1.146423 3.898598 52 75 83
2.597874 1.146423 3.898598 52 75 83
2.169947 0.184726 3.237884 87 110 118
2.621532 1.184095 3.922263 87 103 110
2.614903 1.168090 3.908394 89 105 112
2.574764 1.073372 3.847194 61 84 92
2.411281 0.701988 3.598556 89 115 122
2.623098 1.177135 3.914496 13 22 26
2.623098 1.177135 3.914496 13 22 26
2.210796 0.254962 3.290030 73 105 116
2.210796 0.254962 3.290030 73 105 116
2.531197 0.960815 3.772620 74 97 105
2.531197 0.960815 3.772620 74 97 105
2.541053 0.983890 3.787419 135 154 161
2.230158 0.291447 3.311683 89 111 117
2.230158 0.291447 3.311683 89 111 117
2.212931 0.250961 3.285124 133 159 165
2.435679 0.734388 3.617605 71 92 100
2.541400 0.967389 3.772626 76 101 111
2.608966 1.116198 3.872131 98 114 121
2.588056 1.067689 3.840089 48 70 81
2.529968 0.930656 3.748568 82 105 113
2.531151 0.936168 3.749318 132 148 155
2.605915 1.100620 3.860325 98 110 116
2.177762 0.151579 3.209556 125 141 147
2.475661 0.784616 3.649612 81 104 112
2.599653 1.064512 3.834228 88 101 109
2.468948 0.767778 3.637402 90 111 119
2.599542 1.052554 3.828440 90 104 110
2.194756 0.152731 3.207388 128 144 150
2.566313 0.942255 3.751065 42 67 77
2.585473 0.986768 3.777763 85 101 108
2.578951 0.967014 3.765411 49 70 78
2.578951 0.967014 3.765411 49 70 78
2.580105 0.963416 3.757198 93 107 113
2.582504 0.952311 3.753604 87 105 112
2.580039 0.940068 3.743971 84 100 106
2.567333 0.902597 3.720095 57 78 86
2.240652 0.189336 3.229348 73 99 106
2.475771 0.682825 3.570822 83 106 114
2.475771 0.682825 3.570822 83 106 114
2.572521 0.884481 3.709923 86 105 113
2.252571 0.201600 3.236439 79 105 112
2.413756 0.536763 3.470473 80 98 105
2.562204 0.850380 3.681369 49 68 75
2.565668 0.855732 3.680955 89 107 114
2.241615 0.155633 3.199965 121 137 143
2.138512 -0.403223 3.050296 76 91 94
2.556445 0.796938 3.637523 88 107 112
2.271699 0.185890 3.218707 81 100 107
2.541791 0.714002 3.581149 55 73 80
2.448134 0.513872 3.446148 80 101 109
2.448134 0.513872 3.446148 80 101 109
2.295927 0.193724 3.221979 82 106 112
2.412256 0.406153 3.368426 50 68 75
2.450680 0.483969 3.421425 85 107 113
2.417150 0.412824 3.372955 128 145 148
2.308565 0.194574 3.218874 79 101 107
2.308565 0.194574 3.218874 79 101 107
2.495826 0.559489 3.471779 76 97 105
2.350477 0.260314 3.264824 81 105 111
2.536117 0.638118 3.526455 93 103 110
2.304320 0.159944 3.191052 117 135 142
2.408027 0.355784 3.329593 73 96 104
2.456956 0.446075 3.391371 79 98 106
2.316514 0.161088 3.189148 115 134 141
2.322813 0.161721 3.188334 119 137 144
2.445579 0.401745 3.358590 75 94 101
2.365378 -0.125635 3.238422 73 91 98
2.365378 -0.125635 3.238422 73 91 98
2.515752 0.521512 3.437912 86 98 108
2.337975 0.163481 3.187229 105 126 134
2.299790 -0.263546 3.134378 80 99 104
2.472380 0.419140 3.365310 74 96 107
2.431315 0.332828 3.304918 75 97 102
2.509395 0.488256 3.412189 91 103 109
2.363512 0.215952 3.205971 108 130 136
2.503670 0.478941 3.401750 95 106 110
2.331733 -0.220984 3.163871 70 86 93
2.397270 0.253091 3.248965 73 96 104
2.397270 0.253091 3.248965 73 96 104
2.477572 0.405731 3.353851 53 78 88
2.467512 0.365254 3.323595 123 142 149
2.467261 0.361822 3.320909 61 84 92
2.421370 0.046535 3.251335 15 19 20
2.468462 0.348532 3.310370 58 79 87
2.478309 0.359815 3.317723 47 65 72
2.465807 0.317906 3.285649 55 74 81
2.452256 -0.061647 3.265192 18 20 20
2.408845 0.166212 3.177058 90 108 115
2.483277 0.295579 3.267621 15 20 21
2.434678 0.197443 3.195703 55 76 84
2.363326 -0.292220 3.097847 68 86 93
2.363326 -0.292220 3.097847 68 86 93
