ply
format ascii 1.0
element vertex 1247
property float x
property float y
property float z
property uchar red
property uchar green
property uchar blue
end_header
-9.273596 -1.695538 10.500433 75 103 110
-9.264717 -1.708028 10.511377 20 39 52
-9.251525 -1.734210 10.508262 67 95 106
-9.275427 -1.635809 10.549259 23 51 58
-9.258487 -1.774297 10.535357 19 40 48
-9.089939 -2.670316 10.384577 100 129 136
-9.205547 1.099210 11.295773 113 151 163
-5.232785 -2.970377 6.388814 81 114 123
-5.252390 -2.965901 6.421893 39 64 74
-5.337050 -2.934630 6.540016 44 65 73
-7.043888 1.253584 8.754654 34 63 77
-6.994949 1.292636 8.737595 118 151 160
-6.852932 1.511833 8.651439 112 143 152
-6.837857 1.536419 8.635670 115 144 153
-9.231984 1.419875 11.722490 111 144 153
-9.160222 1.449644 11.710127 57 86 93
-9.164023 1.449755 11.715425 56 84 91
-9.143883 1.500195 11.728860 37 52 55
-9.096298 1.477852 11.725542 135 165 176
-5.750011 2.654234 7.410992 105 127 133
-7.031116 1.541069 9.164374 50 81 96
-7.048380 1.528209 9.190219 121 156 166
-6.262064 1.562849 8.306817 43 69 76
-6.256157 1.547239 8.371196 46 68 74
-6.256157 1.547239 8.371196 46 68 74
-6.306176 1.438658 8.695349 99 137 149
-6.125153 1.655134 8.535352 86 110 116
-6.125153 1.655134 8.535352 86 110 116
-6.212045 1.463641 8.672663 45 76 85
-6.108626 1.645903 8.541797 86 112 119
-6.108626 1.645903 8.541797 86 112 119
-6.194925 1.475464 8.672132 41 73 86
-6.123625 1.646907 8.570972 87 110 118
-6.134495 1.602863 8.606743 104 134 145
-3.200735 0.029414 4.464404 147 174 184
-8.297912 -3.696465 11.838410 95 123 130
-3.136068 0.007105 4.419895 84 116 127
-3.185664 0.078795 4.500331 146 171 181
-3.176456 0.093640 4.505166 138 166 173
-3.174661 0.078229 4.511157 97 126 135
-5.172924 2.033487 7.516387 210 214 215
-3.108857 0.095356 4.493329 108 137 146
-7.759198 1.584219 11.691854 53 90 98
-3.064789 0.141291 4.571884 111 133 144
-2.982491 0.070675 4.475947 81 111 122
-2.923656 -0.096795 4.386635 91 120 127
-2.925813 -0.076033 4.404191 104 133 142
-2.913788 -0.109828 4.398221 34 54 65
-2.911045 -0.094418 4.393438 26 45 53
-2.876474 -0.091960 4.390354 118 147 156
-2.956452 0.121261 4.538716 144 168 174
-2.937852 0.089985 4.526108 43 69 81
-2.938014 0.099370 4.532326 102 129 139
-2.939571 0.110147 4.543201 54 80 96
-2.813549 -0.099409 4.350899 109 135 142
-2.933353 0.090233 4.543144 48 81 97
-2.815603 0.005458 4.360106 62 91 100
-2.818983 0.004193 4.365452 61 90 99
-5.072885 3.697598 7.974776 61 89 96
-2.806054 -0.011724 4.367948 114 141 145
-2.806054 -0.011724 4.367948 114 141 145
-2.803654 -0.029286 4.378564 67 97 108
-7.742975 -3.445732 12.388402 30 56 63
-2.809394 0.055511 4.427117 91 124 140
-4.982960 3.703164 7.966382 47 73 80
-4.982960 3.703164 7.966382 47 73 80
-2.745378 0.028682 4.378637 90 122 133
-7.662541 -3.407890 12.486919 30 49 56
-7.658535 -3.395314 12.515348 34 55 63
-7.658535 -3.395314 12.515348 34 55 63
-2.705974 0.034050 4.395488 103 130 140
-2.705974 0.034050 4.395488 103 130 140
-2.740556 0.077141 4.455110 109 138 147
-4.812290 3.717003 7.962527 47 82 96
-2.674988 0.015514 4.387333 152 171 176
-4.779805 3.725366 7.964541 69 101 112
-4.769498 3.719677 7.948276 70 103 112
-4.667928 3.728798 7.953818 63 95 106
-4.667928 3.728798 7.953818 63 95 106
-4.658651 3.767013 8.028543 165 182 191
-3.228604 -2.702017 5.616082 49 72 80
-3.228604 -2.702017 5.616082 49 72 80
-3.229479 -2.684677 5.620494 40 59 64
-3.220672 -2.737433 5.610471 91 120 127
-3.215559 -2.731540 5.601721 92 120 127
-3.233175 -2.664899 5.633646 41 60 65
-3.236918 -2.650429 5.644621 48 67 74
-3.236918 -2.650429 5.644621 48 67 74
-3.220481 -2.688318 5.617810 99 119 124
-3.202035 -2.731643 5.589470 30 59 64
-3.240664 -2.610549 5.659703 47 66 71
-3.228498 -2.675367 5.638550 77 92 95
-3.225746 -2.655403 5.637721 100 122 128
-6.347698 1.604227 11.185488 255 255 255
-3.232249 -2.621353 5.657637 99 118 125
-3.236886 -2.605209 5.670922 98 120 125
-3.203637 -2.745779 5.621792 7 23 29
-3.635770 -2.721625 6.407904 58 84 91
-3.281838 -2.361072 5.793052 52 78 85
-3.649720 -2.599723 6.461129 49 75 81
-3.293639 -2.249831 5.839155 56 85 92
-3.293639 -2.249831 5.839155 56 85 92
-3.303313 -2.218868 5.875526 42 70 77
-3.184076 -2.663130 5.668257 55 83 90
-7.557032 -1.179797 13.620806 55 100 113
-4.186957 2.101548 7.488376 176 188 190
-3.284565 -2.229994 5.867380 47 74 78
-3.293755 -2.233668 5.942578 48 72 78
-3.287984 -2.209287 5.941252 48 76 83
-3.297078 -2.201704 5.962983 41 65 71
-3.282314 -2.241923 5.936504 46 72 78
-3.287548 -2.209097 5.959399 102 126 132
-3.268955 -2.248675 5.930965 56 82 88
-3.243436 -2.263930 5.898010 44 66 72
-3.243436 -2.263930 5.898010 44 66 72
-3.240157 -2.267579 5.892005 112 138 145
-3.283739 -2.196271 5.985429 54 76 82
-3.242789 -2.272139 5.953236 133 152 157
-3.264778 -2.102099 6.015279 47 76 81
-3.102251 -2.658257 5.730127 102 121 128
-2.520212 0.055252 4.650544 159 177 184
-2.509285 0.041112 4.631922 96 118 130
-2.509285 0.041112 4.631922 96 118 130
-2.520159 0.059628 4.659187 105 125 136
-2.472178 -0.020714 4.577299 62 88 100
-3.995987 2.111949 7.480018 178 191 193
-2.497439 0.038680 4.632927 94 118 130
-3.192646 -2.310385 5.990946 59 87 94
-2.491771 0.047157 4.645734 104 123 131
-2.491771 0.047157 4.645734 104 123 131
-3.180744 -2.322321 5.980030 44 73 82
-2.476791 0.022041 4.621167 95 117 128
-2.478423 0.038973 4.640679 149 168 173
-2.464527 0.023693 4.626953 73 105 116
-2.469086 0.037914 4.640907 89 115 127
-2.459739 0.018425 4.623729 140 166 172
-3.184103 -2.245971 6.044052 39 65 71
-2.440434 0.022685 4.631122 91 116 126
-2.431182 0.004613 4.618183 72 104 117
-2.431182 0.004613 4.618183 72 104 117
-3.123413 -2.338859 5.983800 128 147 150
-2.393382 -0.167662 4.573955 46 78 84
-3.870880 2.122358 7.475693 174 186 188
-2.420478 0.025270 4.634085 71 101 112
-2.420478 0.025270 4.634085 71 101 112
-3.124356 -2.273177 6.045544 111 140 147
-3.130853 -2.259968 6.061997 38 60 66
-3.790416 2.125561 7.462923 171 183 185
-6.247924 -2.794156 12.714466 32 67 77
-3.000196 -2.268752 6.068982 48 80 86
-3.023382 -2.214100 6.146556 45 69 75
-2.988972 -2.189668 6.139979 97 126 131
-7.006590 1.625910 14.674141 74 106 117
-2.938891 -2.276033 6.094061 60 89 96
-2.239309 0.095347 4.633380 100 121 129
-6.666327 1.769552 14.108941 73 109 117
-6.626396 1.723488 14.174333 42 85 94
-2.271911 0.393259 4.775838 106 124 131
-2.122064 -0.047726 4.491082 143 162 167
-2.124191 0.004160 4.503846 146 166 171
-2.922686 -1.860839 6.263579 107 132 136
-2.111392 -0.036379 4.496558 71 100 109
-2.107557 -0.074532 4.494377 71 102 111
-2.952573 -1.308694 6.379969 48 70 75
-3.444285 2.139937 7.459710 88 107 114
-2.080658 0.032055 4.490113 73 98 108
-3.423582 2.144124 7.467430 93 115 120
-2.073450 -0.076351 4.476704 127 156 163
-2.187881 0.420656 4.745916 102 129 139
-2.065907 -0.019803 4.484211 71 104 113
-2.864950 -1.875097 6.279202 105 137 142
-2.867256 -1.877502 6.284376 108 138 143
-2.807931 -1.951509 6.241097 99 131 136
-2.021814 -0.011162 4.472198 70 99 106
-2.007834 -0.025660 4.464781 145 173 180
-2.005776 -0.016467 4.473513 88 119 128
-1.979627 -0.017555 4.442930 145 164 169
-1.979627 -0.017555 4.442930 145 164 169
-2.038745 0.301323 4.580366 136 148 152
-2.093450 0.482780 4.737412 143 162 169
-1.988580 0.234217 4.510417 111 127 133
-1.988580 0.234217 4.510417 111 127 133
-1.957104 -0.036491 4.438565 78 114 122
-2.751499 -1.674614 6.320256 113 138 142
-1.955454 -0.014980 4.447492 159 175 181
-1.955454 -0.014980 4.447492 159 175 181
-2.646185 -2.263365 6.077141 56 89 98
-1.995264 -0.474187 4.545568 45 71 78
-2.789318 -1.531811 6.415397 104 130 136
-2.781778 -1.526004 6.409455 99 125 131
-2.681806 -2.241828 6.200006 55 87 98
-1.988361 -0.575747 4.565836 53 80 90
-2.634602 -2.243734 6.099487 66 92 98
-2.635947 -2.231624 6.108034 72 101 108
-2.746013 -1.695453 6.373407 48 71 79
-2.754644 -1.550607 6.406018 44 70 77
-2.045284 0.463681 4.719411 69 101 112
-2.640025 -2.215725 6.154080 79 108 113
-2.648149 -2.210447 6.186581 41 70 77
-1.905362 0.030659 4.441964 125 149 155
-2.738166 -1.572022 6.454043 103 128 132
-1.903125 0.031587 4.437574 126 150 156
-1.899975 0.024745 4.440684 156 176 181
-1.893346 0.005305 4.438706 64 98 111
-1.837681 -0.252881 4.373377 71 103 114
-1.898910 -0.505164 4.532022 89 118 123
-2.674793 -1.564755 6.461739 102 131 135
-2.664064 -1.575191 6.483926 58 87 94
-1.833362 -0.005765 4.418189 154 176 182
-1.827898 -0.217079 4.412531 120 141 143
-1.807160 0.040144 4.428319 143 163 168
-1.792670 0.046732 4.397399 141 161 166
-2.509412 -1.919779 6.234165 123 155 161
-1.795955 0.065312 4.420244 129 151 156
-1.791856 -0.033234 4.413967 55 84 93
-2.561594 -1.537804 6.386769 62 98 108
-3.378694 1.826564 8.540089 38 58 63
-3.360757 1.824973 8.528125 44 63 70
-1.765057 -0.005186 4.418657 105 134 141
-1.765057 -0.005186 4.418657 105 134 141
-1.741920 -0.017152 4.417945 56 86 97
-1.740396 -0.016454 4.414816 54 85 94
-1.944142 0.715763 4.975695 71 103 114
-1.944142 0.715763 4.975695 71 103 114
-1.944142 0.715763 4.975695 71 103 114
-1.745850 -0.474301 4.485354 33 47 53
-1.718893 0.088281 4.419173 71 101 112
-1.718893 0.088281 4.419173 71 101 112
-1.719724 0.038455 4.423559 42 65 73
-1.733311 0.335290 4.500615 67 95 106
-1.935747 0.765296 5.045497 63 94 103
-1.935747 0.765296 5.045497 63 94 103
-1.721505 -0.527954 4.507102 104 135 144
-1.864976 0.636472 4.893319 120 149 156
-1.693015 0.038564 4.434157 59 86 96
-1.885340 0.688743 4.982220 73 106 115
-1.885340 0.688743 4.982220 73 106 115
-1.661742 0.042521 4.412236 122 151 156
-2.374798 -1.600032 6.380100 119 153 159
-2.378149 -1.576758 6.409663 125 158 167
-2.377328 -1.567914 6.437894 128 158 163
-1.636472 -0.041549 4.386534 59 85 92
-1.634549 0.045945 4.407972 36 59 67
-2.191466 -2.253646 5.971700 36 68 74
-2.015400 -2.695263 5.517318 90 110 115
-1.614408 0.039682 4.406998 58 93 103
-1.629921 -0.541478 4.462100 87 113 119
-1.629921 -0.541478 4.462100 87 113 119
-1.607272 -0.049828 4.401235 104 132 139
-1.998276 -2.696372 5.517038 85 107 113
-1.599034 -0.024422 4.401774 62 93 102
-1.575138 0.050927 4.396363 57 86 95
-1.558228 -0.005448 4.371609 63 85 91
-2.000658 -2.673302 5.665890 111 133 138
-1.916301 -2.685383 5.523694 119 139 144
-1.905820 -2.700921 5.537892 34 53 60
-1.897842 -2.699460 5.516488 139 154 157
-6.811980 2.829686 20.200806 40 72 78
-1.502887 -0.111472 4.378199 56 80 86
-4.592489 1.718046 13.698181 29 57 64
-6.789165 2.761627 20.324555 46 69 77
-5.447799 2.125139 16.301789 36 63 73
-3.978663 1.750421 11.874832 36 59 67
-1.470088 0.081523 4.372536 138 162 168
-1.470088 0.081523 4.372536 138 162 168
-1.865404 -2.723450 5.613761 32 51 58
-1.558111 0.414999 4.696397 101 123 129
-1.558111 0.414999 4.696397 101 123 129
-1.855855 -2.656875 5.646669 41 70 79
-1.856960 -2.641126 5.656576 34 60 67
-1.436664 -0.059432 4.358725 114 148 154
-1.436664 -0.059432 4.358725 114 148 154
-1.422908 0.046384 4.350283 140 168 175
-1.414457 0.006958 4.339806 59 90 99
-1.395896 0.058504 4.307131 152 172 177
-1.384975 0.010790 4.295460 130 152 157
-1.404149 0.190477 4.366284 142 159 162
-1.389022 0.049379 4.314906 74 93 100
-1.386439 0.094258 4.318577 141 161 166
-1.372853 0.122590 4.312681 96 119 127
-1.371242 0.146046 4.333851 97 125 136
-1.381345 0.216834 4.384771 116 138 144
-1.381345 0.216834 4.384771 116 138 144
-1.351368 0.047430 4.301879 141 161 166
-1.346438 0.010722 4.311818 98 127 132
-1.343807 -0.007865 4.317628 104 130 137
-1.339914 -0.025169 4.309598 105 134 143
-1.327304 0.114026 4.272187 146 166 171
-1.375980 0.354215 4.478794 77 108 117
-1.307574 -0.008931 4.273388 118 140 145
-1.296767 0.000167 4.268053 129 153 159
-1.292117 -0.059527 4.289829 52 74 80
-1.285846 -0.149505 4.289258 120 139 146
-1.308461 0.281976 4.405384 135 163 170
-1.322292 0.349889 4.476416 55 80 90
-1.242998 -0.101359 4.259902 112 134 140
-1.262639 0.119658 4.336409 35 53 60
-1.235106 0.002163 4.261215 88 115 119
-1.650270 -2.169346 5.745818 120 146 152
-1.252344 0.100900 4.326164 56 83 93
-1.686206 -2.242980 5.877457 119 145 151
-1.247962 0.122677 4.333787 116 145 152
-1.235390 -0.254583 4.294753 115 141 147
-1.225026 0.005789 4.270593 45 64 72
-1.231192 -0.274320 4.295829 97 126 135
-1.231266 -0.290813 4.301768 49 74 84
-1.218826 -0.133820 4.256873 38 54 61
-1.284064 0.356783 4.503991 65 93 100
-1.221002 -0.016491 4.289758 37 55 62
-1.314107 0.482079 4.630216 79 114 124
-1.276267 0.378009 4.500031 67 95 102
-1.205647 0.016720 4.257005 105 134 139
-1.210767 -0.181837 4.300563 26 44 51
-1.208181 -0.200056 4.297345 27 43 50
-1.199865 -0.023801 4.270256 89 118 125
-1.205427 -0.234658 4.309156 31 47 53
-1.205427 -0.234658 4.309156 31 47 53
-1.188502 0.074828 4.264522 133 157 163
-1.189029 -0.085777 4.264110 91 122 131
-1.209034 -0.287482 4.338660 17 35 42
-1.187565 -0.007910 4.265904 91 115 121
-1.187565 -0.007910 4.265904 91 115 121
-1.184681 0.006841 4.258247 52 71 78
-1.187198 -0.017168 4.266859 52 70 77
-1.520518 -2.708821 5.574224 100 125 129
-1.222720 0.401055 4.453733 88 113 123
-1.183685 0.268501 4.339427 86 110 116
-1.172574 -0.278902 4.305504 111 141 146
-1.172187 -0.278584 4.304425 111 141 146
-1.128543 0.369660 4.368464 87 111 117
-1.434645 -2.610870 5.622978 82 114 120
-1.894329 1.386758 7.464982 46 65 72
-1.062169 0.125334 4.137887 51 70 75
-1.072197 -0.093654 4.184508 57 79 85
-1.072872 -0.124225 4.191641 76 98 104
-1.063981 -0.081049 4.175322 68 87 94
-1.065152 -0.164270 4.183682 25 44 52
-1.945439 2.104033 7.782497 5 21 27
-1.883154 1.334450 7.532323 78 107 111
-1.518340 -1.683637 6.095479 32 56 62
-1.040374 0.097249 4.142135 57 83 95
-1.007132 -0.090948 4.099476 74 93 100
-1.882128 2.033776 7.819890 54 80 87
-1.015531 0.297840 4.157002 67 97 108
-1.341459 -2.701310 5.566554 71 99 106
-1.341459 -2.701310 5.566554 71 99 106
-0.995618 0.106178 4.095560 138 164 170
-0.996977 0.166944 4.110726 66 92 98
-0.998505 0.181053 4.117714 72 100 107
-0.949566 0.026190 4.065690 52 74 80
-1.782894 1.941896 7.809914 60 88 95
-1.734686 1.503607 7.604725 101 128 132
-0.943470 0.558434 4.129927 76 107 116
-1.704527 1.505470 7.610632 115 142 146
-0.926420 0.057643 4.090770 102 131 136
-0.930588 0.549818 4.147174 126 150 156
-0.942241 0.403917 4.237833 47 66 74
-0.946330 0.647717 4.282168 97 117 122
-0.914719 0.594856 4.273243 108 137 146
-0.872571 0.133439 4.111381 119 149 154
-0.922415 0.807185 4.352761 157 181 187
-0.903077 0.592890 4.270333 114 143 150
-0.875109 0.238502 4.152712 114 147 156
-0.889018 0.776740 4.308594 58 86 97
-0.893331 0.903788 4.346400 95 123 130
-0.891918 0.914754 4.350086 105 128 136
-0.854698 0.519559 4.164770 132 161 166
-0.871018 0.774423 4.301864 40 68 75
-1.111121 -2.691771 5.551332 80 106 112
-0.832796 0.421145 4.122898 54 76 88
-0.733879 -0.044774 3.628264 82 115 124
-0.723702 -0.079385 3.607862 141 163 168
-0.723702 -0.079385 3.607862 141 163 168
-0.717965 -0.137501 3.605338 61 90 99
-0.813040 0.230995 4.112334 68 92 98
-0.810231 0.430524 4.130078 48 77 86
-0.806728 0.402737 4.143045 57 84 94
-0.800762 0.312304 4.124288 76 100 106
-0.800762 0.312304 4.124288 76 100 106
-0.800180 0.389733 4.149767 50 71 79
-0.795999 0.380939 4.143962 133 156 158
-0.780944 0.147011 4.078908 86 110 116
-0.689936 -0.135742 3.588944 132 158 164
-0.797200 0.634839 4.230662 152 175 183
-0.808417 0.728417 4.301476 106 132 139
-0.676086 -0.104642 3.594630 68 94 101
-0.765384 0.524339 4.114492 147 171 177
-0.767387 0.590086 4.164105 58 86 97
-0.744316 0.164545 4.044327 85 111 118
-0.763154 0.574395 4.150657 87 116 121
-0.763154 0.574395 4.150657 87 116 121
-0.760183 0.560459 4.137389 93 121 128
-0.747824 0.274746 4.079463 82 108 115
-0.735224 0.147412 4.030327 85 109 115
-0.750467 0.404901 4.130486 106 136 141
-0.653278 -0.108545 3.582859 127 153 159
-1.025260 -2.230754 5.759550 49 78 83
-0.724770 0.126930 4.014958 83 102 109
-0.724770 0.126930 4.014958 83 102 109
-0.766615 0.671637 4.254711 68 93 103
-0.771937 0.704481 4.304969 44 63 71
-0.773763 0.721204 4.328723 104 124 129
-0.773763 0.721204 4.328723 104 124 129
-1.012544 -2.224603 5.781312 55 87 93
-1.012544 -2.224603 5.781312 55 87 93
-1.018283 -2.172725 5.817078 46 79 88
-0.730762 0.396318 4.119133 68 92 98
-0.730762 0.396318 4.119133 68 92 98
-0.725107 0.387556 4.113339 59 85 92
-0.703808 0.100443 3.987657 92 113 121
-0.703808 0.100443 3.987657 92 113 121
-0.637263 -0.083233 3.604674 65 94 101
-0.517379 -0.562747 2.912068 44 72 79
-0.718082 0.376616 4.107237 75 102 112
-0.712140 0.459694 4.083276 57 79 84
-0.711062 0.487930 4.074305 146 171 175
-0.705487 0.362465 4.093760 83 106 114
-0.695705 0.515893 4.070671 142 163 165
-0.694914 0.474342 4.065434 47 69 75
-0.694914 0.474342 4.065434 47 69 75
-0.678549 0.118205 3.978863 76 100 106
-0.678549 0.118205 3.978863 76 100 106
-0.685363 0.517722 4.063277 80 106 113
-0.685363 0.517722 4.063277 80 106 113
-0.614082 -0.404915 3.661691 43 60 69
-0.677189 0.575571 4.055169 43 60 69
-0.656776 0.066140 3.944340 96 118 124
-0.675945 0.542449 4.060783 123 153 158
-0.673753 0.530671 4.058723 78 101 109
-0.686319 0.661564 4.169558 156 178 184
-0.964062 -1.705651 6.033321 54 88 94
-0.646132 0.366890 4.011229 90 112 118
-0.639285 0.217320 4.011365 90 116 128
-0.663385 0.770053 4.184534 106 136 141
-0.638727 0.607526 4.046855 122 142 147
-0.564043 -0.144121 3.559798 54 79 89
-0.629951 0.279554 4.007489 100 119 124
-0.655851 0.739397 4.206374 73 103 114
-0.610108 0.474028 3.958696 97 116 123
-0.698638 1.040561 4.576810 144 173 180
-0.605340 0.195802 3.978225 91 110 118
-0.602691 0.179998 3.970968 78 101 109
-0.827244 -2.655414 5.545605 150 170 175
-0.827244 -2.655414 5.545605 150 170 175
-0.520820 -0.236318 3.441896 95 121 127
-0.595794 0.579998 3.970263 117 131 137
-0.593477 0.566545 3.962095 106 125 130
-0.593477 0.566545 3.962095 106 125 130
-0.581693 0.029625 3.884386 107 135 146
-0.810192 -2.669904 5.532928 147 171 177
-0.587721 0.236630 3.955691 83 104 112
-0.671344 1.027581 4.556364 76 108 114
-0.801372 -2.664014 5.535453 118 142 148
-0.573877 0.425116 3.913564 71 93 99
-0.799489 -2.640566 5.547072 100 124 130
-0.809467 -2.415952 5.650182 151 172 174
-0.809467 -2.415952 5.650182 151 172 174
-0.793407 -2.652246 5.543265 156 168 172
-0.569575 0.337972 3.919881 73 95 101
-0.492917 -0.195927 3.419532 101 127 133
-0.778027 -2.673386 5.527685 100 122 127
-0.544604 0.154890 3.886749 110 129 137
-0.632676 1.019805 4.566133 66 96 107
-0.542571 0.245622 3.896721 92 114 120
-0.536676 0.367131 3.871092 99 118 123
-0.736226 -2.671364 5.518227 55 81 87
-0.503275 0.386400 3.834471 96 120 126
-0.494115 0.458685 3.812072 133 152 155
-0.492285 0.415637 3.813600 95 117 122
-0.482490 0.459326 3.797560 87 105 112
-0.479561 0.467599 3.797029 136 154 155
-0.459456 0.049068 3.671249 105 125 130
-0.392374 -0.264839 3.164320 114 136 142
-0.457302 0.139324 3.721080 79 100 108
-0.536291 0.904456 4.447165 71 105 118
-0.457654 0.528988 3.783026 106 125 130
-0.457654 0.528988 3.783026 106 125 130
-0.447512 0.211198 3.748843 108 130 135
-0.440028 0.285127 3.763352 91 110 117
-0.493572 0.859347 4.373264 80 118 130
-0.423927 0.375162 3.744915 85 109 115
-0.413269 0.275265 3.730543 89 111 117
-0.401668 0.167554 3.675597 74 95 103
-0.404645 0.289497 3.720754 78 99 107
-0.585297 -2.519094 5.561350 140 165 169
-0.395034 0.440563 3.706533 76 98 104
-0.395832 0.343065 3.720455 86 105 112
-0.402271 0.644017 3.787143 118 140 146
-0.402271 0.644017 3.787143 118 140 146
-0.609648 -1.895467 5.885161 108 129 131
-0.424305 -0.961707 4.055355 32 58 64
-0.605536 -1.879492 5.889996 43 66 68
-0.711016 -2.386157 6.954637 48 71 73
-0.383029 0.167104 3.655314 86 108 114
-0.383029 0.167104 3.655314 86 108 114
-0.386930 0.311142 3.708977 62 83 91
-0.386930 0.311142 3.708977 62 83 91
-0.383050 0.365443 3.705449 72 90 97
-0.376868 0.185730 3.656235 102 124 130
-0.432606 0.888070 4.355210 89 125 135
-0.428867 0.874211 4.350847 151 180 189
-0.424652 0.883371 4.351188 66 102 118
-0.355288 0.344831 3.675936 68 90 96
-0.353956 0.594874 3.704223 102 121 128
-0.509173 -2.607764 5.531670 148 167 172
-0.336110 0.363222 3.656056 87 109 114
-0.330992 0.390427 3.647593 82 101 108
-0.324799 0.172071 3.600544 104 122 129
-0.321941 0.117198 3.581338 88 109 117
-0.321758 0.128565 3.585511 86 112 119
-0.463886 -2.654591 5.498814 144 164 169
-0.288008 0.027629 3.317946 102 124 130
-0.302844 0.403688 3.618096 69 91 97
-0.302844 0.403688 3.618096 69 91 97
-0.301990 0.434406 3.614882 74 93 98
-0.447404 -2.484583 5.562149 156 175 180
-0.444880 -2.480055 5.567982 95 117 122
-0.283797 0.184718 3.577668 84 110 117
-0.258113 0.580684 3.596601 102 122 127
-0.274919 0.930759 4.284096 76 106 117
-0.188472 -0.307490 2.914497 138 163 167
-0.183229 -0.310192 2.910474 51 82 91
-0.259537 0.943079 4.274334 98 121 129
-0.215150 0.232318 3.538009 87 111 117
-0.255949 0.958005 4.276053 105 129 135
-0.421810 1.995797 7.601126 50 67 70
-0.421810 1.995797 7.601126 50 67 70
-0.421735 1.995614 7.599742 50 67 70
-0.421735 1.995614 7.599742 50 67 70
-0.171469 -0.292984 2.914524 68 99 108
-0.415619 1.950776 7.582878 59 76 79
-0.415619 1.950776 7.582878 59 76 79
-0.202457 0.368459 3.529530 83 104 112
-0.202457 0.368459 3.529530 83 104 112
-0.269369 -2.511171 4.959858 54 75 83
-0.164016 -0.145171 3.016605 145 169 175
-0.179199 0.341795 3.512769 78 102 108
-0.179199 0.341795 3.512769 78 102 108
-0.179199 0.341795 3.512769 78 102 108
-0.145749 -0.159991 2.998866 127 149 154
-0.236822 -2.622240 5.491818 85 114 119
-0.152049 0.621740 3.510920 111 130 133
-0.225014 -2.628978 5.489241 141 160 165
-0.145583 0.311140 3.475095 95 117 123
-0.218558 -2.638493 5.478677 139 158 163
-0.218558 -2.638493 5.478677 139 158 163
-0.127474 -0.221404 3.018059 33 45 47
-0.131228 0.326306 3.457661 88 107 114
-0.120428 0.297399 3.319491 143 165 170
-0.116221 0.401633 3.449541 94 116 122
-0.108158 0.615375 3.484958 76 95 102
-0.108158 0.615375 3.484958 76 95 102
-0.096747 -0.018993 3.315537 114 143 152
-0.152777 -2.108670 5.723077 104 126 131
-0.148018 -2.185328 5.674836 122 149 153
-0.145913 -2.332852 5.604531 122 145 147
-0.129484 -2.181579 5.700681 48 74 80
-0.068625 0.761337 3.594860 80 104 110
-0.068625 0.761337 3.594860 80 104 110
-0.057977 -0.280739 2.961466 97 128 137
-0.047644 0.547383 3.395101 134 159 163
-0.020498 0.524092 3.368253 82 104 110
0.009226 0.627723 3.414390 40 54 60
0.014031 -0.207515 3.013962 135 161 167
0.067256 3.019381 7.299429 40 62 67
0.022225 -0.201431 3.022396 71 99 106
0.025677 -0.065025 3.255250 73 101 112
0.025677 -0.065025 3.255250 73 101 112
0.028944 0.585146 3.383821 54 74 79
0.028944 0.585146 3.383821 54 74 79
0.097431 2.980658 7.350478 84 102 109
0.101578 2.949324 7.505953 33 52 57
0.107341 3.000989 7.264044 48 72 78
0.043033 -0.079072 3.240539 77 107 118
0.046043 0.543350 3.364868 46 65 72
0.046043 0.543350 3.364868 46 65 72
0.127854 2.999862 7.200309 105 125 130
0.058983 0.642422 3.419285 49 70 72
0.064005 0.636912 3.413823 103 123 128
0.067731 0.579942 3.382331 37 54 57
0.161108 2.976654 7.203392 43 64 66
0.071001 0.633611 3.412291 52 74 79
0.073607 0.654223 3.425115 61 84 86
0.074620 0.539926 3.367872 101 121 126
0.188071 2.859023 7.463121 97 119 125
0.080014 0.569663 3.382298 103 125 130
0.080925 0.535220 3.368847 49 71 77
0.122683 1.208219 4.868119 109 134 136
0.071015 -0.252723 2.961324 126 155 160
0.196017 2.874739 7.468945 12 30 37
0.084047 0.562636 3.379916 43 62 67
0.086360 0.627096 3.410805 32 51 56
0.086360 0.627096 3.410805 32 51 56
0.085731 0.591470 3.392497 46 66 71
0.088685 0.505444 3.360393 45 71 77
0.096322 0.588734 3.395272 104 125 127
0.097864 0.595331 3.396482 38 60 66
0.104907 0.587724 3.394299 41 63 69
0.106624 0.573471 3.387853 40 62 67
0.159925 1.194129 4.803422 83 112 119
0.171248 1.184891 4.790215 146 170 176
0.125399 0.064189 3.364085 59 83 89
0.129827 0.489768 3.368811 58 86 93
0.127388 -0.105563 3.206352 92 121 130
0.133074 -0.054612 3.281761 68 96 107
0.314780 2.917099 7.136498 32 44 46
0.335061 2.947800 7.078344 89 110 112
0.158956 0.548442 3.391202 40 66 73
0.282837 -2.525470 5.454513 102 129 133
0.411529 2.800142 7.393682 35 54 59
0.204165 0.694597 3.494757 62 82 87
0.204165 0.694597 3.494757 62 82 87
0.304042 -2.556367 4.862000 60 79 84
0.309167 -2.482301 4.902279 69 88 93
0.307153 -2.550295 4.869431 39 55 61
0.307922 -2.554051 4.863110 120 136 142
0.307922 -2.554051 4.863110 120 136 142
0.308221 -2.696057 4.792024 62 78 84
0.308462 1.270167 4.707169 99 118 123
0.217406 -0.018286 3.333274 66 96 107
0.357478 -2.608950 5.430892 7 26 33
0.214922 -0.054804 3.278620 63 92 101
0.220427 -0.011394 3.338592 123 151 158
0.360189 -2.594861 5.415254 121 145 151
0.497091 3.043138 7.049921 78 99 101
0.497091 3.043138 7.049921 78 99 101
0.231476 -0.068049 3.246909 66 93 103
0.237830 -0.053359 3.272050 65 92 102
0.343955 1.266632 4.671541 108 130 136
0.244423 -0.017093 3.333600 63 90 104
0.351333 1.199522 4.611888 110 136 143
0.351333 1.199522 4.611888 110 136 143
0.362215 1.196073 4.609338 94 122 129
0.585888 2.819561 7.368885 31 49 50
0.366581 1.211292 4.617402 110 135 145
0.552289 2.843966 6.856149 89 108 111
0.592748 2.668226 7.314772 54 69 72
0.602583 2.369411 7.193850 35 54 59
0.284115 0.009598 3.361964 59 89 100
0.643922 2.264534 7.519294 17 31 37
0.299300 0.616662 3.488641 33 46 48
0.408473 1.353762 4.653745 86 118 129
0.311187 0.615931 3.496613 37 51 57
0.482796 -2.589756 5.403900 53 78 82
0.312191 0.032681 3.386903 44 72 83
0.312191 0.032681 3.386903 44 72 83
0.333744 0.036650 3.393436 69 96 106
0.546380 -2.447496 5.461118 57 74 77
0.547526 -2.431485 5.467799 55 72 75
0.472519 1.355368 4.681918 113 145 151
0.349083 0.010718 3.342415 88 114 121
0.490557 1.329004 4.665012 112 143 152
0.479457 1.168285 4.548217 99 125 132
0.352913 0.002097 3.326099 136 158 163
0.512495 1.320273 4.675812 52 84 95
0.508830 1.282130 4.637944 70 99 108
0.529949 1.389658 4.774703 20 39 46
0.635604 -1.965469 5.705403 36 53 56
0.635604 -1.965469 5.705403 36 53 56
0.640510 -2.156442 5.596839 39 56 59
0.553345 1.407978 4.751868 42 57 60
0.654656 -2.565396 5.394421 35 54 57
0.654656 -2.565396 5.394421 35 54 57
0.670861 -2.435323 5.451328 15 34 39
0.670861 -2.435323 5.451328 15 34 39
0.563182 1.059034 4.394411 70 98 105
0.451728 0.118607 3.458004 74 107 116
0.581191 1.083173 4.366465 88 114 121
0.657932 -2.342833 4.772925 25 38 40
0.652565 -2.607019 4.637253 31 48 51
0.497510 0.120422 3.451424 84 115 124
-0.244194 0.797909 -1.700855 24 36 40
-0.252252 0.826341 -1.755460 21 36 39
0.726682 -2.355411 4.771070 72 93 95
-0.217244 0.856318 -1.433505 24 41 44
3.936550 -15.652617 25.888839 27 44 47
0.552326 0.157072 3.484952 81 110 119
0.730560 -2.640896 4.636238 77 99 105
0.552250 0.148051 3.471776 82 112 123
0.762109 -2.342730 4.796208 26 38 38
0.561366 0.152298 3.474794 72 104 115
0.684538 1.068927 4.223100 81 104 112
0.491899 -0.334820 2.974488 85 117 123
0.490044 -0.315045 2.963993 46 69 77
0.490044 -0.315045 2.963993 46 69 77
0.701602 1.210808 4.234080 91 117 124
0.488328 -0.238031 2.931343 84 114 119
0.508008 -0.089664 2.970957 111 137 143
0.599859 0.171612 3.493187 78 112 118
0.641594 0.203916 3.522830 74 106 117
0.757234 1.042370 4.138994 36 54 61
0.648216 0.222560 3.541247 63 97 110
0.788219 1.278289 4.288414 66 99 108
0.798680 1.285391 4.298411 150 174 180
0.778842 1.172506 4.176532 137 159 165
0.797385 1.194479 4.188607 58 89 98
0.814283 1.223356 4.204304 88 114 120
0.799762 1.040069 4.128525 99 127 134
0.820358 1.246547 4.217439 143 172 177
0.828318 1.247145 4.216627 80 107 117
0.741473 0.380856 3.688145 58 80 86
0.836387 1.094486 4.146522 111 135 141
0.901440 1.135834 4.191338 108 137 142
0.817662 0.236906 3.471965 138 163 167
0.829223 0.247985 3.484401 138 163 167
0.849814 0.302892 3.542099 92 120 127
0.868484 0.330238 3.557817 135 160 164
0.975146 0.649568 3.979656 66 94 105
0.904136 0.390541 3.615703 119 145 151
0.917952 0.394429 3.626708 96 122 128
0.925383 0.367848 3.625097 40 58 65
1.013756 0.651638 3.970785 78 109 118
0.897718 0.224224 3.508319 50 68 79
0.931520 0.399142 3.629007 97 126 131
1.038635 0.675165 3.987221 78 110 121
0.890435 0.042788 3.343716 90 119 128
0.875223 0.089934 3.242910 79 108 117
0.985965 0.545756 3.641441 21 43 55
0.985141 0.546223 3.637859 26 46 57
0.997258 0.541547 3.622120 110 149 158
1.330982 1.014861 4.810235 40 72 83
0.994036 0.346213 3.495981 45 74 81
0.990726 0.420475 3.470884 126 154 161
1.001607 0.454883 3.501909 58 87 96
1.341361 0.945850 4.699315 28 51 59
1.016079 0.461684 3.512396 64 93 102
1.022128 0.175927 3.502779 128 151 159
1.017800 0.435081 3.478787 130 156 162
0.991458 0.104948 3.369933 126 150 156
1.028086 0.369427 3.461137 41 64 72
1.032046 0.427524 3.469956 79 106 116
1.021378 0.114312 3.402953 61 80 88
1.046114 0.363654 3.466238 51 68 77
1.050749 0.133902 3.420480 88 110 116
1.033800 0.055871 3.357729 80 101 109
1.247450 0.746625 4.055439 89 116 126
1.045764 0.190790 3.389735 100 126 133
1.045764 0.190790 3.389735 100 126 133
1.087486 0.387354 3.469373 53 79 86
1.088715 0.433188 3.469707 140 163 171
1.091101 0.127892 3.432015 107 126 133
1.111790 0.444452 3.474379 128 154 160
1.085014 0.038959 3.390764 30 42 48
1.085014 0.038959 3.390764 30 42 48
1.505543 -2.511589 4.739055 22 41 44
1.100146 0.237772 3.401229 115 141 147
1.100146 0.237772 3.401229 115 141 147
1.294811 0.729897 4.012108 68 96 103
1.085666 0.206488 3.354524 124 146 151
1.144588 0.473440 3.514869 127 153 159
1.138351 -0.142236 3.420310 76 95 102
1.153137 0.301756 3.470073 40 59 64
1.138300 -0.135951 3.415616 30 49 54
1.139298 -0.053803 3.399254 41 57 64
1.219697 0.515335 3.608723 69 98 105
1.233385 0.596581 3.632189 83 107 113
1.355983 0.792301 3.981241 72 97 107
1.236826 0.580173 3.621816 69 89 100
1.213683 0.435044 3.530875 100 123 131
1.241074 0.534352 3.598959 121 145 151
1.222925 0.463916 3.540997 43 64 72
1.219187 0.416277 3.531606 86 105 112
1.213027 0.325616 3.503762 93 112 120
1.215805 0.342971 3.509908 91 113 119
1.509083 1.354095 4.362980 103 122 129
1.256385 0.609948 3.609197 129 153 159
1.260682 0.585887 3.599868 138 157 164
1.229389 0.320392 3.508732 38 54 61
1.262725 0.605364 3.598049 117 143 149
1.264525 0.582739 3.598805 47 73 80
1.265558 0.592481 3.599032 35 57 63
1.484111 1.113732 4.225794 69 98 107
1.265292 0.619616 3.595551 69 97 108
1.269927 0.544092 3.607478 45 67 78
1.270978 0.554478 3.605350 42 63 71
1.227743 0.426538 3.473919 105 124 131
1.236458 0.311248 3.492878 118 138 143
1.277482 0.648214 3.608766 63 87 99
1.277482 0.648214 3.608766 63 87 99
1.278972 0.640731 3.604191 148 167 174
1.490287 1.096552 4.194667 83 109 116
1.330135 -0.593524 3.741695 6 15 18
1.330135 -0.593524 3.741695 6 15 18
1.540090 1.371282 4.317131 70 97 107
1.178817 -0.016714 3.298573 117 141 147
1.420444 0.891949 3.972002 72 99 109
1.165218 0.218333 3.250898 126 148 153
1.220135 -0.357677 3.409402 89 111 117
1.426184 0.900323 3.964600 72 99 109
1.298236 0.600877 3.605638 40 56 62
1.262598 0.378319 3.511297 101 125 131
1.439500 0.963004 3.999645 75 103 110
1.556694 1.378362 4.323258 81 106 116
1.213815 -0.124857 3.363958 70 93 101
1.301347 0.592261 3.601446 53 72 79
1.302250 0.604441 3.602369 112 130 137
1.429574 0.905838 3.956865 87 113 120
1.305994 0.617176 3.604064 94 114 119
1.307884 0.623212 3.605471 50 72 78
1.199481 -0.006849 3.297098 121 143 148
1.313346 0.639468 3.610157 107 127 132
1.214121 -0.030046 3.324017 47 69 75
1.214121 -0.030046 3.324017 47 69 75
1.324242 0.647508 3.616571 48 66 73
1.324242 0.647508 3.616571 48 66 73
1.445438 0.942440 3.945592 77 103 115
1.210065 0.010913 3.300013 109 132 140
1.232020 -0.282580 3.357962 42 60 67
1.236072 -0.314350 3.368035 111 135 141
1.200079 0.202572 3.261575 37 63 77
1.232367 -0.126366 3.352588 84 110 117
1.437371 0.842523 3.911407 73 102 111
1.437371 0.842523 3.911407 73 102 111
1.449488 0.930344 3.940291 65 94 103
2.491059 3.062984 6.817947 85 104 109
1.557009 1.275450 4.226945 84 112 123
2.593112 2.819057 7.084293 20 32 36
1.242678 -0.166415 3.356389 29 47 54
1.221114 -0.032233 3.299081 123 143 148
1.290459 0.375211 3.484867 97 122 126
1.460969 0.929338 3.927253 144 166 172
1.355049 0.705540 3.629602 63 87 93
1.300683 0.370988 3.482435 31 48 57
1.251922 -0.120861 3.343509 82 108 114
1.612111 1.360646 4.294631 129 151 157
1.246045 0.502568 3.305703 61 87 94
1.599371 1.315579 4.256592 91 117 123
1.612113 1.348154 4.282888 66 92 108
1.258760 -0.116347 3.338548 18 37 45
1.287345 0.281962 3.409567 98 118 123
1.260914 -0.121029 3.341388 89 108 115
1.368670 0.694737 3.621602 61 80 85
1.468095 0.863897 3.888249 119 145 152
1.697841 1.478014 4.506231 51 73 78
1.267695 -0.135814 3.350249 34 52 59
1.700791 1.478760 4.512724 42 66 72
1.253325 0.018055 3.307177 119 141 152
2.624670 3.311189 6.983653 90 109 114
1.625619 1.356390 4.286648 127 153 160
1.262526 0.576702 3.315570 61 86 96
1.624974 1.341096 4.271840 70 100 111
1.509791 0.945359 3.953612 71 101 112
2.566798 2.994209 6.752334 82 97 99
1.271561 0.566419 3.304277 127 149 155
1.272193 0.544530 3.302044 50 77 87
1.272193 0.544530 3.302044 50 77 87
1.266270 -0.076038 3.283555 105 127 133
1.523026 0.877245 3.933556 46 74 85
1.662675 1.360825 4.283325 83 110 120
1.653143 1.324884 4.252941 69 99 110
1.293512 0.536924 3.313507 45 63 70
1.404889 0.682099 3.602114 75 97 103
1.289117 -0.025302 3.304491 49 65 72
1.287321 -0.084669 3.288500 64 92 99
1.437909 0.702132 3.656340 76 98 104
1.680757 1.352429 4.272745 135 158 166
1.685451 1.340948 4.260547 60 87 101
1.311239 -0.121763 3.279871 115 139 145
1.311239 -0.121763 3.279871 115 139 145
1.478949 0.773727 3.699821 160 179 186
1.479003 0.773731 3.699845 160 179 186
1.334555 0.249955 3.331247 51 68 77
1.714429 1.308665 4.227632 83 112 121
1.714429 1.308665 4.227632 83 112 121
1.368695 0.344514 3.358010 127 146 153
1.356349 0.460266 3.308370 92 118 125
1.358721 0.505853 3.301063 45 63 70
1.385502 0.377606 3.363454 43 61 68
1.503607 0.737172 3.647233 58 77 84
1.504539 0.727839 3.647177 28 49 57
1.370130 0.277253 3.315890 62 81 89
1.370130 0.277253 3.315890 62 81 89
1.807460 1.604320 4.382429 25 47 58
1.377410 0.290492 3.320049 103 126 134
1.411193 -0.504552 3.410479 43 57 63
1.809701 1.602926 4.369105 149 177 184
1.350908 0.127232 3.252806 68 93 103
1.411689 -0.512522 3.403092 40 56 62
1.762708 1.348043 4.245703 95 117 123
1.348584 0.106154 3.234506 75 96 104
1.344559 -0.050401 3.224854 118 137 142
1.384619 0.325829 3.319363 43 65 76
1.377718 0.496517 3.296834 119 139 144
1.515450 0.709676 3.609239 133 154 162
1.794273 1.377065 4.274301 143 164 166
1.771020 1.308588 4.217645 134 162 169
1.351330 0.048164 3.205084 52 74 86
1.792253 1.358859 4.264101 123 148 152
1.541887 0.766889 3.658038 66 91 101
1.361472 -0.087476 3.225587 52 71 78
1.521900 0.718171 3.611619 139 158 165
1.528125 0.712306 3.614145 34 57 65
1.376641 0.133584 3.247971 79 101 107
1.783716 1.301721 4.219147 38 67 76
1.420132 -0.528903 3.355465 49 71 77
1.769147 1.266861 4.180673 132 156 162
1.681948 0.955778 3.964448 37 64 74
1.402889 0.335856 3.293831 90 113 121
1.555272 0.798031 3.654920 55 82 96
1.539298 0.710429 3.616449 99 118 125
1.539298 0.710429 3.616449 99 118 125
1.766982 1.258633 4.155824 18 48 59
1.558379 0.788767 3.655656 51 73 84
1.765226 1.219946 4.140880 122 155 164
1.547584 0.708920 3.620662 38 60 71
1.547452 0.708976 3.620138 38 60 71
1.413540 0.349967 3.301657 106 130 136
1.850502 1.270483 4.332057 14 41 51
1.850502 1.270483 4.332057 14 41 51
1.457836 -0.282715 3.400090 100 124 130
1.761123 1.186336 4.109034 119 151 162
1.387891 0.115101 3.228234 58 81 89
1.427077 0.370046 3.319182 42 67 77
1.383498 0.085650 3.212283 54 77 85
1.398248 0.134789 3.245323 76 99 107
1.780205 1.232090 4.137869 137 162 166
1.754123 1.152088 4.077234 121 152 161
1.796615 1.643790 4.172895 116 135 142
1.710564 0.979111 3.971358 68 94 101
1.577554 0.788397 3.655738 112 134 140
1.751578 1.139173 4.065092 121 153 164
1.426258 0.347504 3.289004 114 136 142
1.583984 0.798716 3.658012 28 49 57
1.718698 0.976303 3.970013 64 90 102
1.584055 0.804121 3.653065 60 83 91
1.443756 0.377468 3.325243 101 123 128
1.752185 1.107852 4.032875 138 160 165
1.580333 0.750665 3.627301 28 49 57
2.893261 2.971218 6.699876 72 87 90
1.585553 0.775006 3.631829 119 142 150
1.433566 0.312030 3.276839 108 128 133
1.420194 -0.057519 3.248696 126 145 150
1.730192 0.967221 3.963505 77 103 110
1.730192 0.967221 3.963505 77 103 110
1.728809 0.956344 3.958873 55 81 93
1.587690 0.767466 3.627276 49 70 78
1.441552 -0.560758 3.299374 60 83 91
1.752262 1.065451 4.008140 108 136 143
1.749902 1.053508 4.000263 106 134 141
1.416611 0.077127 3.225857 54 77 85
1.446153 -0.503821 3.306038 92 114 119
1.780431 1.399337 4.062914 103 127 133
1.625744 0.935800 3.701170 120 143 151
2.883972 2.869424 6.620473 86 101 103
1.829581 1.696416 4.167488 159 181 187
1.459104 0.359217 3.314842 39 53 59
1.598200 0.778880 3.632026 68 94 101
1.439117 0.497991 3.264116 103 129 136
1.748141 0.994486 3.976322 115 141 147
1.452453 -0.538275 3.301225 57 80 88
1.743227 0.963634 3.960915 117 143 150
1.755641 1.001871 3.983963 17 46 55
1.755641 1.001871 3.983963 17 46 55
1.458889 0.326081 3.300771 34 46 52
1.610909 0.772383 3.633902 112 135 143
1.704252 0.867296 3.832035 3 25 36
1.486820 0.361579 3.333121 107 126 131
1.753979 0.916567 3.936983 131 153 159
1.474015 0.331853 3.298690 102 121 128
1.490910 0.324776 3.320798 93 118 122
1.807271 1.374206 4.021070 92 118 125
1.478151 -0.593603 3.287404 58 78 89
1.478356 0.510086 3.267711 64 83 91
1.878694 1.747479 4.158293 55 74 79
1.495144 -0.456202 3.308753 66 89 97
1.495144 -0.456202 3.308753 66 89 97
1.873422 1.704171 4.146932 154 170 176
1.487939 0.319804 3.283655 50 72 83
1.486194 0.523905 3.273499 133 152 159
1.489258 0.312950 3.283280 96 116 121
1.882554 1.744123 4.151698 154 173 180
1.491934 0.518719 3.271841 55 77 89
1.501001 -0.495457 3.302326 57 78 86
1.515380 0.380091 3.314337 42 63 71
1.508519 0.550447 3.292846 115 138 146
1.720035 0.771685 3.762449 100 123 131
1.504469 0.328676 3.277900 39 57 68
1.504469 0.328676 3.277900 39 57 68
1.522501 0.396818 3.318052 70 91 99
1.716399 0.751930 3.745358 81 103 109
1.508067 0.322987 3.276916 111 133 139
1.521048 0.543143 3.300403 48 67 74
1.521048 0.543143 3.300403 48 67 74
1.518887 0.313277 3.276606 45 62 71
1.517997 0.337239 3.272483 47 69 80
1.523452 -0.627812 3.276112 46 73 83
1.523452 -0.627812 3.276112 46 73 83
1.931681 1.748266 4.149124 147 164 167
1.543692 0.396518 3.302238 105 129 135
1.543692 0.396518 3.302238 105 129 135
1.543005 0.544339 3.300021 50 79 93
1.669768 0.624516 3.578051 96 121 131
1.539978 -0.476098 3.299135 29 56 66
1.552745 0.547534 3.297794 64 97 106
1.559752 0.060170 3.286619 59 82 90
1.559752 0.060170 3.286619 59 82 90
1.594731 0.213371 3.357141 22 27 30
2.834100 2.607794 6.006514 49 64 66
1.582393 -0.392467 3.325531 58 77 84
1.575827 0.036519 3.297009 96 120 126
1.572327 -0.511178 3.287566 60 79 87
1.572327 -0.511178 3.287566 60 79 87
1.595774 -0.391322 3.322995 57 77 82
1.584672 -0.484693 3.291110 42 61 69
1.608338 -0.028075 3.336710 7 12 11
1.600734 0.087964 3.303197 47 63 69
1.917139 1.334790 3.953351 89 115 121
1.917139 1.334790 3.953351 89 115 121
1.668158 -0.126432 3.437342 17 22 21
1.653022 -0.243276 3.401688 58 69 73
1.960747 1.499063 4.025452 93 113 118
1.659095 -0.272560 3.394201 9 14 15
1.659095 -0.272560 3.394201 9 14 15
2.010586 1.704396 4.110456 88 114 120
2.010586 1.704396 4.110456 88 114 120
1.600047 -0.634781 3.275059 86 115 124
1.644346 -0.321492 3.356686 83 99 106
1.600490 -0.633872 3.262038 117 140 148
1.655046 -0.314826 3.366177 16 21 22
1.636257 -0.383927 3.326020 86 108 114
1.619895 -0.453656 3.290829 117 136 141
1.619346 -0.487633 3.285732 111 131 136
1.619346 -0.487633 3.285732 111 131 136
2.035456 1.739883 4.122819 88 110 116
1.806671 -0.445657 3.666644 93 115 121
1.673664 0.139325 3.387927 32 36 37
1.629705 -0.448276 3.294286 53 71 78
1.922477 1.187214 3.883131 96 120 126
1.922477 1.187214 3.883131 96 120 126
1.693349 0.489416 3.414009 64 88 94
1.626327 -0.515753 3.282550 81 104 112
2.002654 1.535881 4.035666 82 108 115
2.002654 1.535881 4.035666 82 108 115
1.635453 -0.439548 3.296767 90 109 114
1.625323 -0.553108 3.274042 46 64 71
1.631978 -0.473804 3.285760 83 104 112
1.954223 1.301752 3.932149 88 117 124
1.951118 1.289807 3.925943 84 110 117
2.041699 1.709415 4.108561 73 101 108
1.627260 -0.540811 3.275566 90 112 118
1.635161 -0.452007 3.289506 97 116 123
1.635444 -0.452240 3.290027 97 116 123
1.654536 0.078499 3.322554 80 96 102
1.635746 -0.513238 3.284600 101 123 129
1.625157 -0.640302 3.261190 88 111 119
1.626201 -0.618861 3.262907 84 111 121
1.641845 -0.468519 3.289522 14 21 24
1.629546 -0.588407 3.264383 99 116 125
1.631079 -0.580392 3.266286 82 104 110
1.923859 1.110825 3.848004 82 110 117
1.923859 1.110825 3.848004 82 110 117
1.635229 -0.574336 3.272018 78 97 105
1.630557 -0.642502 3.257248 95 113 120
2.054647 1.692727 4.100491 81 110 117
1.986321 1.373286 3.962244 88 114 120
1.954185 1.220415 3.895709 88 114 120
1.954185 1.220415 3.895709 88 114 120
1.680700 0.183161 3.345958 100 119 124
1.966800 1.258076 3.911101 85 111 118
1.707213 0.594703 3.379311 148 167 172
1.645737 -0.624743 3.266433 102 121 124
1.645517 -0.645206 3.260472 101 126 128
1.971321 1.224933 3.895055 92 118 125
1.948074 1.110304 3.844495 87 115 122
2.067473 1.662134 4.079673 80 106 112
1.666810 -0.052440 3.282199 111 130 135
2.058417 1.578427 4.043834 77 101 107
2.067125 1.556500 4.035485 91 117 123
1.995547 1.217577 3.887494 85 111 117
2.086184 1.620219 4.059941 81 105 111
2.061034 1.493678 4.005452 88 114 121
2.013382 1.266524 3.905971 84 112 119
1.666674 -0.369755 3.229596 69 95 102
2.101700 1.636488 4.063652 77 104 114
2.013004 1.204489 3.878938 93 117 123
2.113323 1.658325 4.072909 87 110 118
1.855249 1.015532 3.560969 155 175 180
2.124516 1.666686 4.072770 90 112 118
2.126513 1.629978 4.059121 77 101 107
2.084185 1.438922 3.976322 89 113 119
2.013495 1.105166 3.832677 83 112 121
1.852076 0.934869 3.518664 82 110 117
2.330939 -2.554814 4.475120 14 23 27
1.840525 0.865916 3.495476 80 105 109
2.135151 1.636332 4.061645 130 152 158
2.157080 1.686967 4.080796 84 110 117
2.058040 1.226749 3.881463 85 111 118
2.058040 1.226749 3.881463 85 111 118
2.099192 1.397933 3.956507 94 116 122
2.103870 1.406177 3.959450 78 107 112
2.103870 1.406177 3.959450 78 107 112
2.075793 1.278871 3.904694 71 100 109
2.076529 1.272972 3.900076 135 161 168
2.076529 1.272972 3.900076 135 161 168
2.080259 1.270019 3.897869 88 114 120
1.888293 0.962322 3.524281 82 108 114
1.888293 0.962322 3.524281 82 108 114
1.843790 0.765602 3.440070 96 118 124
1.848758 0.779332 3.445462 85 109 115
1.848758 0.779332 3.445462 85 109 115
2.144778 1.518433 4.004425 83 109 115
1.761058 0.061451 3.276500 127 146 149
1.676568 -0.031456 3.118434 71 99 106
1.826825 0.666094 3.395334 97 121 127
1.857959 0.787103 3.447755 89 115 121
1.844404 0.712027 3.415121 90 109 116
2.140638 1.430635 3.965315 83 111 118
1.920334 1.007707 3.540507 81 110 115
1.920334 1.007707 3.540507 81 110 115
2.128850 1.332239 3.921451 89 111 117
1.911615 0.903569 3.492602 79 112 121
2.231518 1.716382 4.082595 80 106 113
2.231518 1.716382 4.082595 80 106 113
1.900007 0.842979 3.467489 99 128 133
2.201902 1.584627 4.025478 94 116 122
1.830806 0.547597 3.338753 93 112 119
1.835906 0.563085 3.345082 96 115 120
1.904661 0.836926 3.463354 93 119 126
1.711259 -0.480943 3.114080 76 104 111
1.711259 -0.480943 3.114080 76 104 111
1.839427 0.552549 3.339908 78 102 108
1.839427 0.552549 3.339908 78 102 108
1.839951 0.526651 3.326974 93 115 120
1.839951 0.526651 3.326974 93 115 120
1.839951 0.526651 3.326974 93 115 120
2.227102 1.601048 4.029619 85 108 116
1.938525 0.920904 3.497708 89 118 125
2.274344 1.771880 4.103686 133 155 160
2.185739 1.396202 3.943083 86 112 119
2.153586 1.259234 3.881887 80 109 116
1.957395 0.967549 3.517302 61 89 96
2.163486 1.260719 3.882784 86 114 121
2.268714 1.695344 4.066394 89 113 119
2.244760 1.585831 4.020439 91 116 120
2.244760 1.585831 4.020439 91 116 120
2.238562 1.558082 4.007728 88 111 119
2.277741 1.715705 4.075301 79 105 111
1.963587 0.921766 3.493887 84 113 122
2.245720 1.528179 3.995989 88 112 118
1.831320 -0.183104 3.244590 123 143 148
1.987175 0.974740 3.514239 86 112 118
1.733924 -0.568453 3.067358 55 78 86
2.305034 1.735287 4.079382 80 106 113
2.177790 1.202346 3.852745 78 107 114
2.177790 1.202346 3.852745 78 107 114
1.802952 0.213044 3.181452 80 106 112
2.236973 1.406602 3.937482 88 114 120
1.921650 0.648814 3.373422 91 117 124
2.202119 1.253815 3.873147 84 110 117
2.285940 1.598913 4.018421 77 103 109
2.000214 0.965862 3.508512 93 117 123
2.194351 1.218369 3.856404 80 108 115
1.742629 -0.580266 3.057053 82 108 115
2.200608 1.208931 3.852832 94 116 122
1.780756 0.052012 3.105605 97 119 125
1.792140 0.091706 3.123980 82 104 110
2.302952 1.612896 4.022659 94 118 124
1.988468 0.853404 3.460587 85 112 122
1.945932 0.678307 3.383901 84 112 119
2.023699 1.000084 3.519953 79 103 109
2.008449 0.919951 3.491154 141 163 168
2.024317 0.992097 3.516265 87 111 117
2.024317 0.992097 3.516265 87 111 117
2.033098 1.008977 3.522632 89 111 117
2.282685 1.456141 3.956014 90 112 117
1.797548 -0.457999 3.109021 75 101 107
1.888421 0.386025 3.253614 81 107 113
2.260706 1.325017 3.898271 78 104 111
2.360653 1.736901 4.071699 75 97 103
2.360653 1.736901 4.071699 75 97 103
2.354690 1.701529 4.058272 76 104 111
2.322339 1.562467 3.998099 89 111 117
2.048341 1.000816 3.516704 94 118 124
2.287806 1.407423 3.930986 87 111 117
2.258747 1.285409 3.879919 77 105 112
2.364161 1.710514 4.059212 72 99 109
2.364161 1.710514 4.059212 72 99 109
2.223031 1.134973 3.813256 85 114 123
2.223031 1.134973 3.813256 85 114 123
2.289911 1.391181 3.923066 85 108 116
2.251685 1.233859 3.855788 85 110 120
2.325292 1.527293 3.980567 86 110 116
2.286505 1.365730 3.910922 83 111 118
1.944333 0.524696 3.309733 94 118 124
2.067182 1.011724 3.518903 73 99 105
2.067182 1.011724 3.518903 73 99 105
1.955342 0.561536 3.327107 83 111 118
1.969168 0.611878 3.348417 142 161 168
2.048891 0.928100 3.483206 93 117 123
2.040301 0.894262 3.467862 90 114 120
2.069563 0.998888 3.512424 80 106 112
2.379525 1.676842 4.042164 78 104 111
2.336267 1.488944 3.963571 126 153 163
2.248053 1.141312 3.812869 84 112 119
2.248053 1.141312 3.812869 84 112 119
1.912760 0.361052 3.236171 75 107 118
1.810622 -0.032246 3.061149 78 100 106
1.896672 0.292662 3.205531 88 114 120
1.901039 -0.214748 3.217590 122 144 150
1.752652 -0.762898 2.960223 106 130 136
2.366406 1.572645 3.993715 74 101 111
2.331108 1.422865 3.932018 89 111 117
2.356158 1.485865 3.957843 78 105 115
2.327652 1.365988 3.904235 137 156 163
2.370466 1.513191 3.967433 91 113 118
1.830005 -0.038700 3.053331 84 110 117
2.062517 0.832840 3.438143 91 113 119
1.997619 0.578508 3.327694 84 112 119
2.379060 1.521458 3.969024 81 105 111
2.110126 1.011506 3.511937 69 92 100
2.346774 1.377685 3.907978 89 113 119
2.346774 1.377685 3.907978 89 113 119
2.039777 0.719290 3.387366 89 117 124
1.972474 0.449634 3.269911 88 115 125
2.051953 0.752921 3.401967 71 99 106
2.127208 1.030619 3.517346 78 106 113
1.867218 0.026255 3.079859 79 107 114
2.346387 1.307251 3.875970 77 103 109
2.327445 1.229585 3.841815 89 115 122
2.412677 1.561188 3.982070 77 103 110
2.412677 1.561188 3.982070 77 103 110
2.083132 0.821004 3.427609 81 109 116
2.083132 0.821004 3.427609 81 109 116
2.104293 0.904044 3.462927 129 156 166
2.104939 0.900906 3.463074 81 114 123
2.104939 0.900906 3.463074 81 114 123
1.923262 0.200074 3.155063 85 111 118
2.455506 1.694916 4.038767 79 105 112
2.139851 1.008256 3.506962 80 108 115
2.346412 1.247564 3.846153 88 114 120
2.446524 1.621179 4.004938 65 88 96
2.446524 1.621179 4.004938 65 88 96
2.111012 0.872407 3.448096 141 164 172
2.446271 1.625512 4.004466 125 149 155
2.149291 1.020884 3.510276 82 106 112
2.149291 1.020884 3.510276 82 106 112
2.050283 0.633682 3.345061 81 112 121
2.050283 0.633682 3.345061 81 112 121
2.116387 0.884284 3.451829 88 112 118
1.907136 0.094712 3.106415 71 98 108
2.414339 1.473105 3.941516 73 101 108
2.461102 1.642287 4.012728 88 110 116
2.376142 1.310441 3.873213 88 114 120
2.089735 0.747038 3.391590 81 109 116
1.933805 0.158399 3.134346 89 112 120
1.933805 0.158399 3.134346 89 112 120
2.354019 1.198880 3.822399 92 111 118
