ply
format ascii 1.0
element vertex 1242
property float x
property float y
property float z
property uchar red
property uchar green
property uchar blue
end_header
-4.116317 2.693361 7.389450 166 178 178
-2.717614 -0.089647 4.858254 83 115 126
-2.703387 -0.084602 4.862209 80 107 117
-2.706874 -0.072287 4.869229 94 121 131
-2.692829 -0.105838 4.854083 65 97 110
-4.065915 2.693872 7.382119 159 176 179
-2.682986 -0.080953 4.867698 60 89 104
-3.689678 -2.713283 6.764258 83 105 110
-3.679265 -2.811255 6.748499 72 91 94
-7.333013 -3.796854 13.593541 52 81 90
-2.650867 -0.292029 4.853491 49 78 87
-3.581532 -2.193769 6.605382 56 88 94
-3.581532 -2.193769 6.605382 56 88 94
-3.831199 -2.419247 7.070668 61 90 95
-3.657738 -2.672957 6.764376 48 72 78
-3.657169 -2.710416 6.766133 47 67 72
-3.657169 -2.710416 6.766133 47 67 72
-3.650752 -2.805378 6.757115 37 56 61
-3.650540 -2.755452 6.756289 42 64 70
-3.650540 -2.755452 6.756289 42 64 70
-3.650614 -2.777202 6.757089 45 64 69
-3.674934 -2.608544 6.812270 104 130 136
-3.632130 -2.774884 6.735617 70 85 88
-3.654132 -2.702992 6.779253 96 118 123
-3.646650 -2.721905 6.765446 92 118 124
-3.643942 -2.748515 6.761501 102 124 130
-3.637665 -2.807334 6.749607 98 120 125
-3.637665 -2.807334 6.749607 98 120 125
-3.642684 -2.766244 6.760223 98 117 124
-2.769081 0.168819 5.111846 78 99 107
-3.635805 -2.861592 6.752012 94 123 130
-2.766981 0.186647 5.113593 146 170 176
-3.623946 -2.865865 6.743517 20 48 55
-3.725529 -2.226478 6.955358 141 156 158
-3.724089 -2.198912 6.980785 47 69 74
-2.741413 0.175113 5.111820 58 81 89
-3.713436 -2.157315 6.991480 37 66 71
-3.692379 -2.256222 6.959227 53 81 88
-3.604308 -2.832538 6.791136 111 130 133
-3.709494 -2.158758 7.004529 78 107 114
-3.689693 -2.097745 6.993172 57 83 89
-2.697942 0.174148 5.086230 151 169 176
-8.072941 3.755053 15.442017 88 117 126
-7.832675 2.384377 14.985879 80 110 115
-3.867856 2.699713 7.371007 86 111 115
-3.663649 -2.276403 6.990684 136 153 156
-7.783099 2.415215 14.967634 73 106 115
-3.846909 2.700659 7.369918 87 107 112
-7.478515 2.206072 14.479593 124 166 178
-2.587615 0.413057 4.943862 112 136 142
-3.829597 2.709280 7.366901 163 176 178
-3.800301 2.712983 7.370443 163 176 178
-7.456894 2.196602 14.570174 45 83 88
-7.554232 3.653073 14.833023 138 180 192
-3.602031 -2.305515 7.033109 57 89 94
-3.523224 -2.783705 6.882385 30 44 50
-7.350447 2.286966 14.550945 140 186 194
-2.481665 -0.005031 4.844301 96 117 125
-3.576955 -2.331210 7.033720 48 84 92
-7.467166 2.154549 14.816077 52 83 86
-3.721195 2.718459 7.368046 159 174 177
-3.515680 -2.335343 6.974623 44 71 75
-2.435101 0.144580 4.801518 105 124 129
-7.469680 3.609367 14.990100 134 176 189
-3.529289 -2.339002 7.042585 131 150 153
-7.461730 3.583097 15.018361 107 152 163
-3.529137 -2.296393 7.068232 65 94 101
-7.452027 3.605547 15.037942 141 178 186
-3.532710 -2.233026 7.095173 28 54 60
-3.527026 -2.252305 7.085629 106 135 142
-7.271664 2.405063 14.720245 118 164 175
-2.438344 0.334003 4.871348 96 118 124
-3.516730 -1.629350 7.075450 59 84 88
-7.281458 2.356438 14.787604 47 80 89
-7.256540 2.371799 14.733523 47 85 90
-2.425705 0.352645 4.874553 100 129 138
-2.349408 -0.179329 4.728595 151 166 168
-7.355934 3.537621 15.031324 141 180 188
-7.332991 3.540837 15.045352 40 86 97
-7.218951 2.417395 14.817352 57 93 101
-7.329201 3.524611 15.047808 141 183 195
-2.337703 -0.166294 4.731548 69 97 108
-2.334211 -0.206052 4.741906 70 100 111
-7.183629 2.449649 14.825749 31 73 80
-2.303196 -0.096615 4.704753 63 91 98
-3.479467 -2.100023 7.173661 30 47 50
-3.479467 -2.100023 7.173661 30 47 50
-2.297330 -0.099254 4.708033 81 111 122
-2.295785 -0.210792 4.722135 126 155 162
-3.433442 -2.128602 7.120267 101 127 133
-2.939243 -3.293477 6.095991 69 96 106
-2.277910 -0.187219 4.716106 68 100 111
-7.332014 3.795945 15.428889 133 176 185
-3.410603 -2.109130 7.142860 97 120 122
-2.269062 -0.101413 4.716318 141 163 169
-3.453695 -2.088441 7.242071 31 43 47
-3.386841 -2.238293 7.108651 54 85 94
-3.402433 -2.155223 7.152936 43 70 74
-2.238749 -0.143496 4.698868 69 98 107
-7.078573 3.518774 15.081351 130 172 184
-6.940491 2.481844 14.810968 129 169 174
-3.379895 -2.139113 7.172607 96 125 130
-7.039423 3.502855 15.056174 140 185 196
-6.924791 2.496675 14.833809 127 169 176
-2.220767 -0.159439 4.689460 146 170 176
-6.914881 2.510053 14.868639 141 186 190
-3.364260 -2.150704 7.188448 82 112 117
-2.282175 0.395834 4.854699 77 105 116
-2.196543 -0.155344 4.676438 153 172 177
-3.316340 -2.237054 7.132253 64 98 104
-3.391146 -2.127961 7.308233 36 52 59
-6.763581 2.475176 14.741152 56 100 113
-2.155579 0.152713 4.638587 115 134 139
-2.296300 0.722664 4.947425 121 149 156
-6.801671 3.725507 14.894736 45 82 90
-6.801671 3.725507 14.894736 45 82 90
-2.165335 -0.150896 4.670996 156 175 180
-2.165335 -0.150896 4.670996 156 175 180
-3.253220 -1.801316 7.073294 108 132 138
-3.289717 -1.742695 7.172547 105 131 137
-2.313542 0.763039 5.017466 49 84 97
-2.256365 0.688768 4.898705 69 95 101
-2.285058 0.733058 4.961822 62 88 95
-3.302505 -2.143541 7.261404 118 140 146
-3.297452 -2.156753 7.251487 38 66 73
-6.717572 3.654297 14.904508 133 177 184
-2.274527 0.734036 4.982793 57 88 97
-3.276126 -2.169215 7.236201 40 71 80
-3.276403 -2.169506 7.236861 40 71 80
-3.243124 -1.885263 7.163439 41 70 74
-3.251554 -1.925744 7.207662 45 74 79
-2.109550 -0.104120 4.651437 122 146 152
-2.113080 -0.181313 4.670041 61 96 106
-2.102424 -0.110344 4.650134 149 171 177
-3.243190 -1.764038 7.237643 114 138 144
-2.067053 0.155423 4.582785 163 182 187
-2.067053 0.155423 4.582785 163 182 187
-3.314737 -1.739312 7.423812 82 112 123
-2.093969 -0.130433 4.650635 63 98 108
-3.232541 -1.777031 7.249227 99 126 130
-3.306005 -1.732229 7.423814 73 106 115
-6.677893 3.656911 15.112755 106 148 155
-6.506809 2.430671 14.787416 110 152 157
-2.046548 0.219470 4.600058 109 135 142
-3.174758 -1.781557 7.232105 117 146 153
-3.176749 -1.773220 7.275133 107 134 138
-2.075415 0.301788 4.734944 156 175 182
-2.027158 -0.144554 4.628823 154 174 179
-6.369368 2.476927 14.784406 40 80 85
-6.344782 2.491845 14.743042 134 180 188
-6.344968 2.493453 14.804481 50 91 100
-6.300469 2.516984 14.757742 131 173 178
-6.373169 3.483381 14.955490 121 168 176
-1.992290 -0.130887 4.625207 142 161 164
-2.166752 0.707331 5.039315 66 99 108
-6.514133 3.842800 15.366479 90 126 136
-2.108673 -0.639819 4.908058 87 116 121
-6.326109 3.569217 14.983397 22 57 71
-1.984690 -0.172802 4.638015 54 83 92
-6.313424 3.600048 15.019736 122 167 180
-6.205636 2.502315 14.762552 67 107 112
-6.164086 2.488038 14.726935 131 168 172
-2.998651 -2.199463 7.120024 75 106 109
-6.266542 3.581231 15.011412 134 178 185
-6.154307 2.531775 14.761024 56 104 108
-2.986814 -2.219196 7.113294 59 95 101
-6.145447 2.495470 14.758569 44 84 89
-6.259146 3.561303 15.030387 66 112 119
-6.259146 3.561303 15.030387 66 112 119
-6.239383 3.566548 15.026158 137 178 187
-1.956750 -0.142349 4.636241 106 135 140
-6.231924 3.580692 15.027519 61 107 118
-2.989414 -2.136538 7.170727 44 76 82
-6.113546 2.541838 14.805484 149 185 191
-2.993265 -2.162244 7.221403 83 109 115
-6.049453 2.542245 14.692749 138 178 183
-2.991644 -2.140518 7.225028 42 71 78
-2.991644 -2.140518 7.225028 42 71 78
-2.103312 0.682764 5.054703 65 101 111
-1.924633 -0.154116 4.627824 54 84 95
-6.016836 2.568983 14.700624 138 176 181
-1.921625 0.222815 4.626705 57 89 100
-6.129739 3.588725 15.017272 38 88 100
-6.091717 3.560157 14.972329 140 181 190
-1.906486 -0.045696 4.614029 71 102 111
-1.906486 -0.045696 4.614029 71 102 111
-6.283614 3.778755 15.475867 39 86 94
-6.105707 3.596131 15.039160 39 88 102
-1.905490 -0.095762 4.628989 44 66 72
-1.899600 -0.103770 4.620173 116 144 151
-6.081682 2.396394 15.073422 68 115 123
-6.026866 2.484904 14.958025 57 86 95
-1.876072 -0.121323 4.618787 60 89 98
-1.876773 -0.092785 4.640380 58 90 101
-2.020033 0.607443 5.022945 66 104 116
-1.860156 -0.119225 4.626061 34 60 74
-1.836430 -0.092407 4.602567 121 150 155
-2.848872 -1.767702 7.231617 64 98 104
-2.834977 -1.768460 7.219776 138 167 172
-1.812752 -0.183493 4.609929 59 82 90
-1.811215 -0.089338 4.607640 32 57 67
-1.959406 0.566894 5.020250 123 147 153
-1.869926 0.312683 4.792181 81 114 123
-1.791484 -0.095524 4.612882 54 86 99
-1.807236 -0.684911 4.838795 86 112 118
-1.827400 -0.826937 4.962271 45 67 73
-2.555191 -1.858086 7.120087 62 97 101
-2.555191 -1.858086 7.120087 62 97 101
-1.653162 -0.093794 4.566796 128 152 158
-1.655880 -0.073358 4.584280 49 77 88
-1.736940 0.349748 4.818515 89 112 120
-1.736940 0.349748 4.818515 89 112 120
-1.666976 -0.253707 4.620631 61 84 92
-1.635614 -0.056718 4.571231 140 162 167
-1.635614 -0.056718 4.571231 140 162 167
-1.635614 -0.056718 4.571231 140 162 167
-1.746873 0.426410 4.895422 71 97 104
-1.746873 0.426410 4.895422 71 97 104
-2.471360 -2.243807 6.992913 58 89 98
-1.717377 -0.573110 4.821816 30 44 50
-2.460256 -2.203831 6.986968 111 144 153
-2.611839 0.760331 7.432915 52 81 88
-2.355091 -2.745728 6.772656 30 39 42
-2.355091 -2.745728 6.772656 30 39 42
-1.584527 -0.089756 4.549674 68 101 110
-1.595114 -0.202946 4.587875 117 146 153
-1.595114 -0.202946 4.587875 117 146 153
-1.595114 -0.202946 4.587875 117 146 153
-1.584833 0.034104 4.563659 110 130 135
-2.331276 -2.710869 6.773447 117 136 139
-1.554333 -0.092049 4.504489 151 171 176
-1.556887 0.054329 4.528341 130 147 150
-1.531368 -0.052734 4.476257 139 158 165
-1.537686 -0.099366 4.496268 64 89 93
-2.248663 -2.798504 6.639883 92 114 119
-2.526941 1.021030 7.512704 49 78 83
-1.518643 -0.028570 4.481418 94 123 132
-1.518643 -0.028570 4.481418 94 123 132
-1.537209 0.085927 4.540059 114 136 142
-1.537209 0.085927 4.540059 114 136 142
-1.522189 0.003275 4.499513 94 124 135
-1.519657 -0.151084 4.501088 41 63 69
-1.509106 0.045160 4.508743 93 120 130
-1.501524 -0.103691 4.501376 144 165 167
-1.532570 0.245251 4.594692 78 111 120
-1.496322 0.022648 4.486549 158 178 183
-1.473608 -0.041113 4.439770 143 165 171
-1.491490 -0.156426 4.525664 106 134 141
-1.486218 -0.175552 4.518491 106 135 142
-1.469149 0.033353 4.464763 95 121 128
-2.150927 -2.776178 6.629146 119 140 142
-1.513839 0.300377 4.632129 159 179 184
-2.134383 -2.782612 6.632004 40 62 68
-2.132249 -2.794656 6.630441 132 152 157
-1.448997 -0.165843 4.474981 121 143 148
-1.438739 -0.157406 4.468519 132 154 159
-1.455939 0.157839 4.531820 140 166 173
-2.127751 -2.773591 6.711336 25 40 43
-4.647050 3.672341 14.909245 90 134 141
-2.100037 -2.825670 6.692918 139 154 157
-4.664825 3.700667 15.043990 38 74 84
-1.433047 -0.307437 4.556164 120 139 144
-2.103925 -2.706936 6.750099 83 112 117
-2.095941 -2.798218 6.741216 31 57 63
-2.088046 -2.719792 6.762938 47 76 83
-2.089050 -2.699576 6.767113 38 68 73
-1.393292 -0.041433 4.504411 49 75 87
-1.424202 0.276118 4.612195 63 91 98
-1.371933 -0.155287 4.460889 90 116 122
-1.378811 -0.261365 4.485158 112 132 137
-1.363472 -0.180160 4.458219 93 119 125
-1.352790 -0.167349 4.480077 39 61 67
-2.275161 1.693337 7.624372 54 83 88
-2.250612 1.793569 7.676198 57 83 89
-2.267132 2.766621 7.743028 0 17 20
-1.318927 0.133135 4.469056 84 108 114
-1.320356 -0.172729 4.474201 54 73 80
-2.241728 1.166884 7.688220 39 59 64
-1.342989 -0.354306 4.559281 22 41 48
-1.315317 -0.243021 4.477995 92 125 134
-1.341698 -0.387084 4.580188 29 45 52
-1.292931 0.031560 4.430947 85 111 118
-2.207333 1.123393 7.672210 111 138 142
-2.207333 1.123393 7.672210 111 138 142
-2.183367 1.919758 7.669944 81 110 115
-2.171740 1.000023 7.637781 135 155 156
-1.261408 0.243004 4.474377 82 104 110
-1.249821 -0.314199 4.446908 48 75 85
-1.190789 -0.015787 4.272352 67 93 99
-1.232048 0.259680 4.450029 100 119 126
-1.247896 0.361112 4.524545 109 128 135
-1.247896 0.361112 4.524545 109 128 135
-1.180546 0.186853 4.284438 74 98 104
-1.181532 -0.051605 4.293378 50 68 75
-2.089756 2.005310 7.729155 44 63 70
-1.211701 -0.327022 4.441700 51 71 82
-2.087602 1.118578 7.767883 49 78 85
-2.091968 2.613402 7.824376 59 88 93
-1.157405 -0.078654 4.304089 53 82 89
-2.066630 2.702057 7.808570 22 30 30
-1.183631 -0.337421 4.424619 20 39 46
-1.183631 -0.337421 4.424619 20 39 46
-2.037473 1.559981 7.743937 103 132 137
-2.029008 2.117735 7.719742 103 125 130
-2.035362 1.093316 7.753527 51 87 95
-1.219342 -0.494383 4.612537 113 138 142
-1.217124 -0.501791 4.610993 41 63 68
-2.014834 1.843090 7.754487 94 121 125
-1.994942 2.119643 7.718312 111 138 142
-2.015651 1.806284 7.807682 35 57 62
-1.111462 0.002150 4.252624 69 98 103
-1.109548 -0.013557 4.249379 68 91 99
-1.108678 -0.078391 4.257116 137 166 171
-1.710221 -2.784755 6.706718 89 113 119
-1.976034 1.893912 7.780397 38 60 65
-1.975073 1.942788 7.798426 37 61 67
-1.975073 1.942788 7.798426 37 61 67
-1.967010 1.506538 7.807702 89 119 124
-1.950614 1.818937 7.786681 100 125 129
-1.055855 0.385447 4.161568 72 103 112
-1.099766 0.556623 4.345838 110 134 140
-1.056873 -0.164562 4.242452 51 75 81
-1.039467 0.379857 4.171841 122 148 154
-1.918813 1.551170 7.822578 40 68 75
-1.902314 1.525687 7.788461 88 123 127
-1.065077 0.508146 4.306032 86 110 116
-1.029540 0.247139 4.208116 46 65 72
-1.044953 -0.064443 4.278655 43 56 64
-1.044953 -0.064443 4.278655 43 56 64
-1.618710 -2.670597 6.748395 80 116 122
-1.618710 -2.670597 6.748395 80 116 122
-1.032028 -0.126753 4.258449 102 131 136
-1.029047 0.420880 4.252446 63 97 110
-1.026075 -0.156434 4.252333 106 135 142
-1.607223 -2.664509 6.738832 53 86 95
-1.027817 0.453107 4.302569 106 138 144
-1.828256 1.953060 7.816305 100 125 127
-1.821950 2.361698 7.803922 110 132 137
-1.015624 0.451191 4.304064 113 143 148
-1.808845 1.819133 7.778059 93 122 127
-0.983719 0.251189 4.178866 114 140 146
-1.010169 0.777565 4.299273 96 122 129
-1.807328 1.957162 7.800730 30 59 64
-1.008368 0.788659 4.296746 101 125 131
-1.792222 1.942590 7.810954 100 131 134
-0.992098 0.828717 4.290780 151 172 174
-0.969221 0.341474 4.191173 133 163 168
-1.768784 1.961449 7.800285 47 76 81
-0.981872 0.070678 4.278620 117 151 157
-0.962592 0.208320 4.201615 114 138 144
-0.977452 -0.044487 4.275124 118 147 154
-1.765129 1.945783 7.833059 87 118 121
-1.507729 -2.772115 6.695704 84 111 115
-1.761138 1.808819 7.915384 94 130 140
-0.932835 0.419288 4.256183 160 182 188
-1.662026 1.922062 7.851621 90 119 124
-0.906330 0.120585 4.228946 61 82 90
-0.811944 -0.320973 3.789161 92 121 128
-1.288980 -2.709460 6.113789 105 124 127
-0.898942 0.140708 4.223806 79 103 109
-0.899533 0.223973 4.229602 52 71 78
-0.883188 0.710867 4.163689 138 167 171
-0.895776 0.214074 4.226636 133 154 156
-0.800866 -0.359495 3.773418 143 165 171
-0.800866 -0.359495 3.773418 143 165 171
-0.889796 0.021605 4.222688 86 107 115
-1.620040 1.908722 7.847789 46 75 80
-0.792015 -0.419042 3.788860 60 89 98
-0.893900 0.568383 4.296416 126 148 154
-0.860601 0.351227 4.144188 148 172 178
-0.866105 0.428013 4.185757 55 87 98
-0.866105 0.428013 4.185757 55 87 98
-0.861568 0.409754 4.177493 84 113 120
-0.860106 0.036764 4.198889 88 114 120
-0.860106 0.036764 4.198889 88 114 120
-0.868748 0.529167 4.262522 69 97 104
-0.868748 0.529167 4.262522 69 97 104
-0.877043 0.572669 4.306820 42 64 70
-0.880004 0.594993 4.331717 102 122 127
-0.868989 0.554335 4.282704 48 70 81
-0.857956 0.556269 4.276525 135 157 163
-0.840209 0.094655 4.183738 79 105 112
-0.835179 0.124637 4.185801 87 111 117
-1.522561 1.958479 7.794440 127 152 156
-0.824325 -0.043750 4.168054 82 106 112
-0.746065 -0.386781 3.767698 67 95 102
-0.811728 -0.067390 4.155726 80 101 109
-0.811728 -0.067390 4.155726 80 101 109
-0.818271 0.215876 4.191960 59 82 90
-0.802553 0.308267 4.120169 147 169 174
-0.802843 -0.050307 4.151153 88 115 125
-0.789426 -0.099360 4.136213 87 109 115
-0.789426 -0.099360 4.136213 87 109 115
-0.795465 0.186792 4.173591 82 105 113
-1.247997 -2.757593 6.676958 84 113 117
-0.774673 0.336011 4.096893 83 109 116
-0.766432 0.391980 4.070872 38 56 63
-0.766031 0.360851 4.093050 124 153 158
-0.762888 0.435042 4.087317 97 125 132
-0.762063 0.348274 4.089209 77 102 106
-0.768379 0.498568 4.142745 157 179 184
-1.031944 -3.116527 5.620470 60 86 93
-0.761386 -0.082607 4.120994 63 86 94
-0.757894 0.613890 4.159073 109 139 144
-0.684787 -0.377796 3.775961 111 140 147
-0.676631 -0.414936 3.752515 59 85 92
-0.726220 0.364134 4.045071 100 116 122
-0.735108 -0.079497 4.108721 69 91 97
-0.978958 -3.103022 5.510992 94 113 118
-0.714307 0.350840 4.028650 108 125 128
-0.960970 -3.132688 5.541381 103 122 125
-0.970527 -3.153728 5.601690 94 110 116
-0.979032 -3.166704 5.658289 20 35 38
-0.720759 0.025165 4.127335 91 122 131
-0.779710 0.953884 4.501005 69 100 109
-0.719727 0.624297 4.154497 49 68 73
-0.777417 0.956447 4.509251 65 94 103
-1.164533 -2.119824 6.834101 69 99 104
-1.153273 -2.126596 6.803612 49 83 89
-0.966419 -3.173645 5.684660 95 118 126
-1.145704 -2.190992 6.781602 50 82 87
-1.145704 -2.190992 6.781602 50 82 87
-1.127552 -2.612944 6.683690 42 74 79
-0.925112 -3.208616 5.493458 55 72 75
-1.118220 -2.639344 6.690420 77 112 116
-0.672715 0.364698 3.971102 109 128 133
-1.294305 1.941320 7.825067 102 133 136
-0.751222 0.946457 4.518552 56 88 99
-0.683965 -0.002604 4.099959 90 110 115
-0.622370 -0.429536 3.730018 57 86 95
-0.678427 -0.019983 4.088921 84 105 113
-0.678427 -0.019983 4.088921 84 105 113
-1.259930 1.991560 7.785828 51 83 89
-0.627393 -0.365950 3.791166 49 73 85
-1.255857 1.969409 7.810408 51 85 91
-0.606970 -0.479397 3.712437 133 159 166
-0.663683 -0.054570 4.075030 86 110 116
0.469527 0.716014 -3.142397 56 91 95
-1.240143 1.920960 7.799382 124 154 155
-0.653422 -0.189249 4.042521 100 128 139
-0.700344 0.763356 4.394576 129 161 167
-0.698222 0.837723 4.446522 46 81 95
-0.612179 -0.264187 3.907024 152 174 180
-0.701181 0.969093 4.525441 100 130 135
-0.582316 -0.345500 3.770611 139 163 169
-0.641236 0.629060 4.187286 95 124 129
-0.672699 0.823786 4.426503 132 165 174
-0.684770 1.043221 4.519899 144 175 178
-0.543138 -0.509396 3.604426 103 127 133
-0.570805 0.304394 3.841209 94 112 119
-0.619182 0.667487 4.241615 83 118 128
-0.787224 -3.252965 5.452650 95 118 120
-0.576325 -0.047567 3.950614 107 125 132
-0.534527 -0.383587 3.662256 109 127 134
-0.526880 -0.427484 3.619354 113 131 138
-0.616528 0.713409 4.280832 132 169 177
-0.631515 0.808501 4.407802 68 103 113
-0.631515 0.808501 4.407802 68 103 113
-0.551596 0.226456 3.835026 84 102 109
-0.928042 -2.708767 6.658284 149 172 174
-0.928042 -2.708767 6.658284 149 172 174
-0.739432 -3.222725 5.357818 19 35 41
-0.738346 -3.228189 5.376342 26 40 46
-0.594434 0.710658 4.304277 84 123 132
-0.912317 -2.419434 6.690607 155 175 180
-0.912317 -2.419434 6.690607 155 175 180
-0.525496 0.295322 3.793813 101 118 121
-0.899664 -2.721878 6.655482 116 138 144
-0.732131 -3.230463 5.394983 93 112 117
-0.735766 -3.230075 5.438638 102 118 124
-0.890560 -2.706075 6.658244 158 171 173
-0.723418 -3.240801 5.400635 9 25 32
-0.516741 -0.210298 3.807444 108 128 133
-0.472813 -0.518864 3.483217 107 131 137
-0.516550 -0.109174 3.835284 82 105 113
-0.714895 -3.241742 5.388692 93 115 120
-0.476112 -0.461404 3.530654 114 138 144
-0.508096 0.060239 3.845611 76 94 101
-0.500784 0.046160 3.838544 92 111 118
-0.499050 0.022894 3.839602 92 110 117
-0.489356 -0.063995 3.815036 105 125 130
-0.483823 0.396312 3.772893 112 132 137
-0.484771 0.132574 3.795232 85 107 113
-0.483855 -0.104661 3.801442 107 129 135
-0.428308 -0.626573 3.349852 108 130 136
-0.826246 -2.732072 6.640297 65 94 99
-0.473163 -0.107202 3.790029 110 134 140
-0.470997 0.030119 3.805872 87 109 115
-0.470997 0.030119 3.805872 87 109 115
-0.465687 0.408322 3.762767 109 134 138
-0.714957 -3.179603 5.880157 12 36 42
-0.714957 -3.179603 5.880157 12 36 42
-0.418790 -0.557098 3.374349 101 121 126
-0.462356 0.042519 3.791734 74 98 104
-0.453647 0.190145 3.733988 73 97 103
-0.701647 -3.153216 5.885349 98 118 123
-0.455794 -0.088776 3.776943 69 88 95
-0.455794 -0.088776 3.776943 69 88 95
-0.515827 0.774459 4.315074 88 122 135
-0.452204 0.095934 3.770013 82 104 109
-0.447661 -0.240021 3.730212 102 122 127
-0.690599 -3.177333 5.904544 32 43 47
-0.690599 -3.177333 5.904544 32 43 47
-0.507114 0.769267 4.313018 64 99 113
-0.442943 0.062096 3.772923 67 88 96
-0.440730 -0.103972 3.758971 105 124 129
-0.439246 0.115512 3.752552 72 93 101
-0.435606 -0.092969 3.756689 82 108 114
-0.872716 1.995806 7.753085 116 146 151
-0.429674 -0.073953 3.752479 96 118 124
-0.834277 2.186336 7.645006 126 151 153
-0.411957 0.343299 3.688368 100 122 128
-0.827706 2.024729 7.742093 41 75 81
-0.827706 2.024729 7.742093 41 75 81
-0.391533 -0.086713 3.711870 87 110 118
-0.387749 0.104065 3.698383 86 106 111
-0.384801 -0.177403 3.698354 88 113 123
-0.370113 -0.228319 3.671027 102 121 128
-0.372108 -0.097758 3.695460 104 123 130
-0.372108 -0.097758 3.695460 104 123 130
-0.367624 -0.156562 3.689531 89 111 122
-0.367406 -0.144357 3.691935 87 113 120
-0.367406 -0.144357 3.691935 87 113 120
-0.335873 0.383882 3.629576 108 127 134
-0.356970 0.538708 3.918213 153 173 178
-0.356970 0.538708 3.918213 153 173 178
-0.327582 -0.088762 3.667475 86 109 117
-0.321299 -0.198181 3.629287 116 135 140
-0.458249 -3.214770 5.404504 55 74 81
-0.617167 2.181959 7.609376 62 91 98
-0.346633 0.804735 4.228131 78 108 119
-0.299986 -0.167633 3.626367 112 132 137
-0.603254 2.648589 7.585072 51 69 70
-0.603254 2.648589 7.585072 51 69 70
-0.601870 2.633319 7.586635 51 70 75
-0.293117 -0.212123 3.576803 117 139 145
-0.595638 2.600039 7.581443 58 73 76
-0.595638 2.600039 7.581443 58 73 76
-0.330106 0.815121 4.214453 97 123 129
-0.277802 0.261335 3.543280 93 109 115
-0.326323 0.829914 4.210147 101 124 132
-0.556024 2.692924 7.614816 86 108 113
-0.268546 -0.097093 3.620128 95 117 123
-0.243108 -0.334277 3.340286 142 164 169
-0.516815 2.460189 7.556441 108 128 129
-0.291408 0.846079 4.177757 105 129 135
-0.242048 0.086205 3.561853 78 102 108
-0.228209 -0.296108 3.401352 33 51 58
-0.478718 2.454162 7.542695 109 129 130
-0.266562 0.771564 4.135624 102 124 130
-0.202523 -0.710445 3.088376 135 161 167
-0.197082 -0.714640 3.088571 55 86 95
-0.184821 -0.695875 3.086767 67 94 104
-0.180746 -0.526376 3.147616 142 168 174
-0.200257 0.433597 3.551898 106 125 132
-0.200257 0.433597 3.551898 106 125 132
-0.192095 0.333572 3.476898 108 127 132
-0.189258 0.340464 3.482552 78 102 108
-0.161846 -0.545875 3.142986 132 154 159
-0.293299 -2.659642 5.985691 72 94 100
-0.158646 0.217794 3.441745 59 77 84
-0.158646 0.217794 3.441745 59 77 84
-0.140666 -0.603619 3.181801 28 43 46
-0.145016 0.322184 3.443705 79 99 104
-0.130520 -0.590210 3.176468 43 63 68
-0.117485 -0.340906 3.443258 112 141 148
-0.112117 0.174584 3.406329 87 106 113
-0.105483 0.301149 3.397264 64 83 88
-0.108111 0.489810 3.524345 74 100 106
-0.108111 0.489810 3.524345 74 100 106
-0.074630 0.454147 3.473464 77 99 104
-0.068172 0.689727 3.739282 94 116 127
-0.120143 2.497347 7.549028 108 130 135
-0.104041 3.588195 7.109830 40 68 75
-0.086968 3.617931 6.982680 36 60 66
-0.060275 3.593557 6.990197 85 102 105
-0.033204 0.405555 3.412930 137 160 162
-0.052606 3.542814 6.951252 80 96 102
-0.042327 3.584780 6.935790 48 70 75
-0.034662 3.591444 6.936440 46 71 75
-0.032144 3.444371 7.246228 99 116 119
-0.032144 3.444371 7.246228 99 116 119
-0.019657 0.321971 3.363199 39 57 58
-0.022002 3.543737 6.878429 97 117 122
-0.018103 3.573909 6.877427 103 122 127
-0.018103 3.573909 6.877427 103 122 127
0.017283 3.545952 6.874949 41 60 65
0.003551 0.274572 3.343852 51 70 73
0.003551 0.274572 3.343852 51 70 73
0.026622 3.556144 6.885842 27 43 49
0.010639 -0.420068 3.371558 77 107 118
0.010847 -0.585993 3.171766 139 168 172
0.015707 -0.395859 3.393321 74 103 112
0.015707 -0.395859 3.393321 74 103 112
0.051240 3.519769 7.210910 12 28 35
0.051240 3.519769 7.210910 12 28 35
0.057900 3.510858 7.208711 93 111 118
0.019196 -0.578185 3.180007 72 100 107
0.022495 0.230107 3.334775 55 74 79
0.022495 0.230107 3.334775 55 74 79
0.073865 2.177964 7.550696 111 136 140
0.080488 2.154768 7.492108 113 136 138
0.072956 3.531316 6.779558 93 113 118
0.080984 3.318491 7.155121 105 124 127
0.034850 -0.412313 3.380909 72 102 113
0.087020 2.989605 7.094407 64 83 88
0.095995 2.138109 7.514184 98 127 131
0.038898 0.332470 3.362813 103 123 124
0.101980 2.026667 7.493894 56 78 83
0.044667 0.270178 3.344044 38 52 58
0.113174 2.132457 7.517999 38 66 73
0.048399 0.351933 3.369442 58 78 83
0.048399 0.351933 3.369442 58 78 83
0.050746 0.217486 3.339391 57 76 83
0.052863 0.228184 3.339849 97 120 122
0.082622 1.285808 4.822497 122 151 156
0.057518 0.260574 3.348771 107 128 129
0.059685 0.223918 3.341750 57 76 83
0.062444 0.322605 3.360264 41 60 67
0.062444 0.322605 3.360264 41 60 67
0.062737 0.284072 3.352202 51 70 77
0.102408 1.194840 4.727366 84 116 122
0.102408 1.194840 4.727366 84 116 122
0.074446 0.282122 3.354121 107 128 130
0.074446 0.282122 3.354121 107 128 130
0.115525 1.185071 4.724079 149 171 177
0.073911 -0.640445 3.130986 126 152 158
0.083718 0.281403 3.356406 43 62 67
0.132632 1.297468 4.774033 102 133 142
0.137282 1.168932 4.698257 86 109 117
0.137456 1.168851 4.695871 86 109 117
0.206983 3.503214 6.772694 82 105 107
0.207427 3.503229 6.772699 82 105 107
0.100173 -0.436465 3.361053 84 113 122
0.112726 0.180907 3.359020 58 86 93
0.117671 -0.241805 3.473155 61 83 89
0.130204 -0.377343 3.421093 64 91 101
0.287236 3.430691 7.148387 34 54 59
0.199077 1.219357 4.670483 101 125 131
0.199077 1.219357 4.670483 101 125 131
0.142093 0.243815 3.365305 46 75 84
0.161510 0.622849 3.667855 79 103 109
0.204028 1.033022 4.577901 104 127 135
0.171847 0.622749 3.670163 144 166 171
0.264543 -3.181039 5.545839 29 45 51
0.184457 0.409798 3.435509 53 75 80
0.184457 0.409798 3.435509 53 75 80
0.185297 0.369827 3.411861 56 81 85
0.261373 1.251353 4.602393 98 117 122
0.207925 0.552438 3.583835 81 106 110
0.353613 -2.663412 5.913215 62 81 84
0.353385 -2.716356 5.906376 71 92 94
0.356518 -2.707899 5.912455 49 68 73
0.356518 -2.707899 5.912455 49 68 73
0.362866 -2.883400 5.868317 62 81 86
0.215969 0.447221 3.477001 54 78 84
0.219082 -0.328352 3.467786 64 93 108
0.218161 -0.375934 3.419007 64 90 97
0.221914 -0.320288 3.471515 122 152 157
0.298382 1.283787 4.576714 106 130 136
0.298382 1.283787 4.576714 106 130 136
0.475649 3.452619 7.126625 30 42 46
0.487763 3.470416 7.126521 26 38 40
0.487951 3.469025 7.122458 19 32 34
0.487951 3.419710 7.124040 75 92 95
0.487920 3.285727 7.103741 43 58 60
0.493060 3.429198 7.127653 87 106 111
0.493060 3.429198 7.127653 87 106 111
0.311086 1.161743 4.522068 108 137 142
0.311086 1.161743 4.522068 108 137 142
0.236605 -0.395079 3.388981 67 93 100
0.467833 3.378606 6.562689 73 93 98
0.322583 1.158128 4.520761 89 117 124
0.242656 -0.375193 3.412113 70 93 101
0.326641 1.174750 4.523994 108 132 138
0.248022 -0.326393 3.468644 55 83 100
0.257274 -0.375402 3.407345 75 103 110
0.260747 -0.391320 3.383881 79 108 113
0.277183 -0.250833 3.518817 62 91 105
0.367265 1.324339 4.524254 80 112 125
0.367265 1.324339 4.524254 80 112 125
0.700984 3.376697 8.585431 29 48 53
0.569038 2.626621 6.915379 32 52 57
0.289520 -0.292855 3.492374 50 80 91
0.377597 1.588439 4.514806 30 50 55
0.287862 0.335299 3.455268 31 46 48
0.353741 0.821927 4.225810 116 142 149
0.495983 -3.033324 5.807744 42 58 64
0.495983 -3.033324 5.807744 42 58 64
0.469320 -3.133345 5.347436 31 39 39
0.405596 1.384628 4.604330 141 170 177
0.512564 -2.995354 5.812422 35 54 61
0.414629 1.436260 4.653125 49 72 74
0.318452 -0.263776 3.511145 41 67 79
0.309307 -0.409160 3.330736 92 120 127
0.434631 1.333458 4.552737 111 145 151
0.405271 0.833524 4.199749 99 126 136
0.340963 -0.258041 3.519072 60 87 97
0.411595 0.845876 4.203257 89 118 127
0.411595 0.845876 4.203257 89 118 127
0.411595 0.845876 4.203257 89 118 127
0.680379 2.616383 6.826812 85 106 108
0.455107 1.304051 4.541580 109 142 151
0.463003 1.355142 4.619913 46 78 84
0.449552 1.119642 4.462662 83 109 116
0.347549 -0.314077 3.451576 77 103 110
0.727646 2.171203 6.992734 98 119 120
0.476470 1.321745 4.575769 106 142 150
0.328232 -0.472284 3.174214 80 102 113
0.472667 1.253889 4.532278 60 86 93
0.479219 1.300938 4.564338 53 80 94
0.364267 -0.305462 3.454989 136 155 158
0.496251 1.395379 4.661524 29 47 54
0.369453 -0.314115 3.442219 72 93 101
0.394873 0.508290 3.605638 57 80 88
0.506152 1.322797 4.590848 71 107 117
0.527700 1.426667 4.690814 40 56 62
0.608267 -3.150874 5.294504 41 59 66
0.614817 -3.142770 5.309527 32 50 57
0.621651 -3.151245 5.291099 32 53 61
0.408488 -0.305006 3.438423 74 100 107
0.408488 -0.305006 3.438423 74 100 107
0.647764 -3.140445 5.301584 76 95 102
0.662675 -3.135518 5.307703 28 47 60
0.657327 -3.144720 5.259818 25 39 45
0.544290 0.979066 4.326596 71 98 108
0.668292 -3.142841 5.313031 19 37 48
0.393197 -0.500723 3.116654 136 163 167
0.684347 -3.131425 5.307883 40 56 62
0.751003 -2.809008 5.680748 39 54 57
0.752008 -2.820932 5.649992 34 49 51
0.688995 -3.119323 5.175349 3 14 18
0.688995 -3.119323 5.175349 3 14 18
0.755241 -2.819419 5.669507 44 59 62
0.690402 -3.123628 5.163826 0 4 7
0.690402 -3.123628 5.163826 0 4 7
0.698923 -3.126711 5.157012 86 110 116
0.723337 -3.092883 5.180626 46 62 68
0.795570 -2.837857 5.688399 22 41 48
0.740397 -2.794807 5.285054 38 54 60
0.514059 -0.157918 3.562122 87 116 125
0.757321 -3.143142 5.171306 83 103 108
0.841439 -2.851567 5.705278 77 102 106
0.862998 -2.485247 5.784511 26 38 40
0.859062 -2.839382 5.695396 81 100 107
0.543723 -0.126687 3.581433 71 103 114
0.548506 -0.174696 3.533281 82 115 124
0.571610 -0.124598 3.577218 80 110 121
0.581288 -0.119503 3.580092 63 97 110
0.949579 -2.942104 5.745949 20 30 30
0.690399 1.095883 4.114780 87 113 120
0.697633 1.032630 4.084774 83 109 115
0.558220 -0.354032 3.232055 132 154 160
0.536963 -0.462474 3.099766 112 138 144
0.751991 1.130895 4.104420 128 156 163
0.755565 0.910765 4.059219 43 61 68
0.770683 0.859341 4.113287 124 150 157
0.770683 0.859341 4.113287 124 150 157
0.780329 1.177297 4.157890 68 99 108
0.769031 1.036187 4.059537 72 102 113
0.791170 1.186820 4.166796 156 178 183
0.790949 1.040430 4.059787 62 89 103
0.792178 1.070436 4.064670 57 86 95
0.793399 1.033161 4.055476 64 90 102
0.798584 1.017500 4.056631 59 83 95
0.798584 1.017500 4.056631 59 83 95
0.798584 1.017500 4.056631 59 83 95
0.801817 0.907262 4.048369 100 129 136
0.809612 1.103556 4.077163 89 113 119
0.815310 1.129941 4.087196 145 171 177
0.821213 1.177339 4.108730 149 174 178
0.823890 1.130171 4.084708 79 108 115
0.731343 -0.036102 3.619053 86 117 126
0.692773 -0.235974 3.323051 123 149 155
0.905669 1.018375 4.091916 108 137 142
0.817609 -0.046095 3.567065 101 129 136
0.816136 -0.103661 3.472849 53 79 86
0.838556 -0.041230 3.552419 89 118 125
0.812203 -0.123762 3.423351 59 89 100
0.855692 -0.028221 3.564683 135 159 165
0.894497 0.090603 3.669579 127 155 162
0.852542 -0.079468 3.504713 36 59 67
0.872372 0.003692 3.574210 136 158 163
0.884690 0.052861 3.618404 95 123 130
0.925754 0.151751 3.675455 121 149 156
0.940345 0.157186 3.676391 121 146 150
0.952910 0.163474 3.682099 100 124 130
1.111678 0.653643 4.266967 109 141 147
1.044330 0.495372 3.988164 71 103 114
1.283410 1.049786 4.803161 21 52 67
1.283410 1.049786 4.803161 21 52 67
1.070676 0.523376 4.002725 69 104 114
0.923413 -0.219574 3.354401 74 103 110
1.075154 0.411465 3.901230 95 124 128
1.366219 1.054453 4.815660 34 68 81
1.366219 1.054453 4.815660 34 68 81
1.028395 0.158514 3.504999 122 152 163
1.380917 0.960990 4.714935 27 46 53
1.042737 -0.128711 3.546830 122 147 151
1.041033 0.199652 3.532018 61 92 101
1.033301 0.174405 3.504997 134 160 167
1.041281 0.183178 3.521809 75 103 114
1.055548 0.208842 3.537833 66 95 104
1.046450 -0.175704 3.490901 123 147 153
1.046450 -0.175704 3.490901 123 147 153
1.061805 0.176048 3.515036 130 157 161
1.068256 -0.114024 3.538608 79 108 117
1.064958 -0.225507 3.497984 37 49 53
1.075109 0.107620 3.516307 42 68 75
1.267975 0.408179 4.078629 17 29 31
1.109936 -0.134863 3.542627 90 112 117
1.096262 -0.226630 3.500638 79 102 110
1.319448 0.663708 4.207653 130 154 160
1.101301 -0.084269 3.489346 100 124 130
1.101301 -0.084269 3.489346 100 124 130
1.291705 0.615722 4.062449 81 113 119
1.137467 0.174430 3.508437 137 166 171
1.151055 -0.234993 3.537013 28 39 43
1.151055 -0.234993 3.537013 28 39 43
1.151055 -0.234993 3.537013 28 39 43
1.162843 0.187473 3.516087 132 156 162
1.186338 0.209350 3.531715 140 162 167
1.194856 0.225362 3.546133 125 151 158
1.222300 0.243146 3.625948 131 157 164
1.188885 -0.069559 3.460967 39 58 65
1.267065 0.342803 3.687651 100 124 130
1.380574 0.608859 3.998048 132 158 164
1.191064 -0.079123 3.442422 124 148 154
1.256823 0.226647 3.580211 110 132 138
1.284506 0.355035 3.644567 91 113 119
1.284985 0.374888 3.643463 86 110 116
1.232081 -0.324373 3.482381 121 147 154
1.232081 -0.324373 3.482381 121 147 154
1.290579 0.356906 3.640164 77 101 107
1.407470 0.648273 3.972832 64 92 103
1.271268 0.193026 3.578612 98 124 130
1.292485 0.351077 3.639757 149 168 171
1.443930 0.836467 4.063906 88 117 124
1.443930 0.836467 4.063906 88 117 124
1.447571 0.855285 4.069352 81 114 123
1.275802 0.078677 3.581824 91 113 119
1.277491 0.097278 3.581955 89 111 117
1.298366 0.227319 3.635547 29 47 54
1.296032 0.306581 3.625315 121 145 151
1.451890 0.834987 4.048431 60 89 98
1.290879 0.235985 3.590597 69 89 94
1.287011 0.065504 3.583138 27 45 52
1.306557 0.296215 3.630159 57 85 92
1.296807 0.075283 3.594833 33 47 53
1.517526 0.946629 4.182762 71 99 106
1.257170 -0.285065 3.459667 44 70 82
1.257170 -0.285065 3.459667 44 70 82
1.278214 0.199337 3.515371 130 151 153
1.307148 0.063113 3.589402 110 134 140
1.316643 0.377172 3.603551 121 143 149
1.318667 0.354909 3.609654 47 71 77
1.280179 0.221695 3.504682 137 162 166
1.548164 1.292867 4.237849 81 104 112
1.319533 0.364693 3.608534 37 58 66
1.328156 0.328926 3.627713 38 62 68
1.264894 -0.308790 3.455908 121 140 147
1.329981 0.271618 3.623025 61 83 89
1.331614 -0.593829 3.622824 112 134 140
1.535511 1.153008 4.171505 92 114 120
1.254488 -0.082629 3.397676 113 137 143
1.530413 1.023821 4.151440 72 102 113
1.330787 0.422282 3.605016 58 84 96
1.330787 0.422282 3.605016 58 84 96
1.332237 0.413877 3.601649 148 168 173
1.532522 1.011492 4.145651 81 108 118
1.342515 0.362416 3.621118 40 56 62
2.516187 2.751387 6.786280 45 61 67
2.516187 2.751387 6.786280 45 61 67
1.287311 -0.277983 3.452627 107 133 139
1.538969 1.000852 4.125824 83 112 121
1.347830 0.088825 3.608729 98 117 124
1.471836 0.745846 3.931630 72 94 105
1.355054 0.375664 3.616258 40 59 62
1.358112 0.378300 3.608797 110 129 136
1.361910 0.335020 3.618144 51 73 79
1.361910 0.335020 3.618144 51 73 79
1.478544 0.753006 3.923265 62 90 97
1.490944 0.823838 3.949593 73 101 108
1.362688 0.367650 3.606051 124 144 149
1.364604 0.398009 3.610274 53 75 81
1.579655 1.299588 4.182882 68 96 107
1.267739 -0.093770 3.351609 36 64 75
1.364249 0.326415 3.607846 63 82 87
1.305044 -0.330515 3.450387 112 134 139
1.481350 0.756978 3.915138 88 112 118
1.368136 0.391911 3.608903 91 115 121
1.374366 0.337750 3.616303 108 128 133
1.597851 1.308992 4.189507 73 102 111
1.354346 -0.413728 3.544854 34 52 59
1.576851 1.181136 4.111818 84 115 124
1.576851 1.181136 4.111818 84 115 124
1.386886 0.391723 3.610137 60 82 88
1.387498 0.402443 3.608165 63 85 90
1.514451 0.556949 3.933062 15 42 52
1.391091 0.397084 3.608299 110 129 132
1.501659 0.777923 3.890084 69 96 106
1.392058 0.387693 3.604075 72 94 100
1.518829 0.840722 3.933936 94 116 122
1.607789 1.275428 4.163385 69 94 104
1.346982 -0.018606 3.473086 122 142 147
1.350229 -0.010387 3.481398 114 134 139
1.526761 0.846936 3.934444 85 107 113
1.398538 0.454041 3.600420 45 61 68
1.398278 0.435582 3.599801 56 77 85
2.494491 3.241290 6.451382 12 24 28
1.359589 0.018144 3.497005 104 125 127
1.620797 1.291288 4.170103 73 99 113
1.400867 0.446298 3.599253 108 129 131
1.621940 1.277509 4.164246 129 153 159
2.591140 3.349368 6.681485 71 83 87
1.603634 1.186201 4.113557 80 111 120
1.603634 1.186201 4.113557 80 111 120
1.406205 0.459305 3.602359 100 119 124
1.411275 0.472019 3.606938 55 71 77
1.409124 0.433273 3.601077 35 57 63
1.411094 0.437897 3.598115 54 73 78
1.522778 0.787486 3.881813 86 112 119
1.417834 0.478011 3.609489 102 121 124
1.417834 0.478011 3.609489 102 121 124
2.628850 2.888534 6.724598 40 57 60
2.628850 2.888534 6.724598 40 57 60
1.638116 1.278959 4.161556 70 99 108
1.424518 0.487607 3.611393 63 82 89
1.641689 1.287564 4.165279 134 155 163
1.426350 0.473764 3.607918 60 80 85
1.543867 0.838136 3.907878 119 149 160
1.636501 1.240636 4.138712 75 102 112
1.525547 0.702210 3.855687 130 152 158
1.376112 -0.311143 3.471404 40 58 65
1.432267 0.484035 3.607626 63 82 89
2.642471 2.734581 6.692664 97 119 124
1.529988 0.697034 3.852493 59 87 98
2.640211 2.702141 6.681298 100 123 125
1.564129 0.860675 3.931889 78 108 119
1.564129 0.860675 3.931889 78 108 119
1.646835 1.233812 4.136191 88 114 121
1.438581 0.459119 3.601202 59 78 85
1.434800 0.439277 3.590819 60 83 91
1.658590 1.271850 4.154894 71 100 114
1.370428 -0.064070 3.426798 58 80 86
1.386294 -0.257104 3.459920 97 121 127
1.376134 -0.058920 3.433882 41 63 69
1.403146 0.402462 3.496772 159 184 188
1.329171 0.276863 3.296123 127 146 153
1.448713 0.439162 3.587585 31 49 56
1.383845 -0.042465 3.424894 112 134 140
1.672262 1.262182 4.142786 70 97 111
1.334959 0.251768 3.300876 102 126 132
1.551888 0.665816 3.838010 52 85 100
1.455582 0.447672 3.590405 57 77 82
1.527445 0.632825 3.770353 93 117 123
1.691330 1.307592 4.170700 76 105 114
1.456641 0.443276 3.588195 110 130 135
1.456641 0.443276 3.588195 110 130 135
1.671737 1.215707 4.121343 92 116 122
1.583458 0.727019 3.901409 44 71 81
1.417330 0.388664 3.476640 90 119 126
1.352143 0.250305 3.313454 39 56 59
2.620354 3.540266 6.452982 80 97 100
1.465787 0.458339 3.591449 69 94 98
1.414305 0.042022 3.455055 66 85 92
1.531386 -0.777107 3.733861 42 60 67
1.500059 0.490889 3.646232 80 99 106
1.532292 -0.786497 3.727132 28 46 53
1.713293 1.286845 4.155599 79 109 120
1.704122 1.243914 4.130967 65 94 108
1.530383 0.563439 3.695556 43 67 73
1.378321 0.226082 3.315770 74 98 104
1.426865 -0.321193 3.432493 127 146 151
1.723977 1.276400 4.146413 61 91 102
1.537366 -0.871229 3.684063 62 84 90
1.732722 1.276563 4.146098 129 157 164
1.521366 0.500329 3.633841 54 73 80
1.409336 -0.236756 3.364093 69 94 104
1.548180 0.594716 3.695477 95 121 128
1.429702 -0.413664 3.410609 125 144 151
1.518294 0.450937 3.619698 104 126 131
1.542842 0.572600 3.676217 159 178 185
2.791650 2.800889 6.684563 34 53 56
2.791650 2.800889 6.684563 34 53 56
1.739053 1.263235 4.138006 55 84 98
1.437293 -0.430505 3.410745 51 70 77
1.437529 -0.430654 3.411114 51 70 77
1.535542 0.507607 3.634162 132 151 154
1.756889 1.306963 4.159450 97 123 130
1.756889 1.306963 4.159450 97 123 130
1.434694 -0.349903 3.387410 123 141 148
1.544042 0.500433 3.632125 64 86 92
1.434087 -0.166162 3.369969 70 95 105
1.434087 -0.166162 3.369969 70 95 105
1.730679 1.138366 4.064079 87 115 122
2.742140 3.532320 6.438684 78 97 102
1.451799 0.011665 3.379955 106 128 133
1.771149 1.224715 4.110833 81 112 121
1.771149 1.224715 4.110833 81 112 121
1.454892 -0.049389 3.367453 118 140 146
1.569394 0.525520 3.626722 62 84 90
1.560844 0.463433 3.604626 70 92 98
1.449894 -0.208611 3.346700 112 138 145
1.799806 1.308532 4.154433 85 104 111
1.799806 1.308532 4.154433 85 104 111
1.461239 -0.159876 3.362339 73 92 99
1.579210 -0.831680 3.625441 58 81 89
1.485412 -0.130779 3.388701 67 90 98
1.477061 -0.076888 3.364164 90 112 118
1.585563 0.491479 3.600262 132 152 157
1.475333 -0.182060 3.348806 50 73 81
1.471938 -0.214836 3.339505 55 81 88
1.480313 0.051625 3.355841 88 114 121
1.480313 0.051625 3.355841 88 114 121
1.485764 -0.158542 3.361609 67 93 99
1.485764 -0.158542 3.361609 67 93 99
1.824044 1.271275 4.128055 96 120 126
1.814786 1.229841 4.105883 96 115 120
1.491500 -0.084878 3.368348 13 22 26
1.479603 -0.247417 3.341699 43 64 72
1.598437 0.495281 3.602601 31 51 62
1.519147 -0.350612 3.422736 125 144 149
1.492407 -0.071807 3.361276 96 119 127
1.844300 1.319671 4.155663 106 125 130
1.835703 1.284918 4.131808 113 142 147
1.610253 -0.890935 3.627601 57 78 86
1.852099 1.327201 4.166497 30 56 62
1.851006 1.314407 4.158076 34 58 64
1.609269 0.494026 3.604662 96 120 126
1.828809 1.222133 4.094009 134 158 164
1.751796 0.817227 3.920760 40 66 73
1.751796 0.817227 3.920760 40 66 73
1.540512 0.364924 3.441943 123 148 152
1.610261 0.524953 3.597995 129 153 159
1.621366 0.588710 3.620784 61 88 98
1.850827 1.283889 4.135031 125 150 154
1.818300 1.146281 4.054620 81 105 111
1.519284 -0.139431 3.383238 59 82 90
1.615842 0.525599 3.597406 87 116 123
1.831880 1.185996 4.077778 135 157 162
1.508752 0.063228 3.353992 115 137 143
1.525459 -0.132952 3.390391 56 75 82
1.621418 -0.743975 3.609536 60 86 92
1.625403 0.553613 3.607852 87 113 119
1.829111 1.154098 4.059495 124 148 154
1.631922 0.561278 3.614571 137 157 162
1.600850 0.403298 3.544718 91 117 124
1.629486 -0.785555 3.614149 60 82 88
1.750386 1.052693 3.854296 121 150 159
1.643820 0.572121 3.621407 75 98 106
1.646533 0.580458 3.626420 112 134 139
1.781517 0.842700 3.922403 68 93 103
1.781517 0.842700 3.922403 68 93 103
1.633924 0.422415 3.595279 84 106 112
1.843563 1.179644 4.056050 140 160 165
1.825799 1.078758 4.015103 119 148 157
1.540393 0.080932 3.375791 39 51 57
1.820078 1.037955 3.990957 120 151 160
1.653592 0.595777 3.620557 61 83 89
1.818874 1.022862 3.982719 120 153 162
1.639317 0.420224 3.584551 142 161 166
1.538416 0.045133 3.361310 27 42 45
1.555259 0.045837 3.395117 27 42 45
1.840035 1.127680 4.022282 141 160 167
1.546225 0.320403 3.373706 153 172 177
1.627802 0.394249 3.551054 64 87 95
1.818932 1.008715 3.971491 141 165 171
1.661551 -0.927186 3.626273 55 81 88
1.656010 0.562422 3.604535 127 146 153
1.658964 0.554194 3.602296 50 71 79
1.658964 0.554194 3.602296 50 71 79
1.800787 0.817612 3.913402 56 78 89
1.800787 0.817612 3.913402 56 78 89
1.821961 0.985123 3.957059 139 161 167
1.740145 0.664151 3.773794 139 161 167
1.567007 0.087834 3.387655 103 124 126
1.817735 0.895040 3.933059 96 121 131
1.819512 0.886895 3.934181 111 135 141
1.820111 0.923588 3.934017 109 132 140
1.817446 0.870277 3.922462 119 143 149
1.812207 0.812227 3.911436 109 135 141
1.811598 0.812370 3.909310 108 134 141
1.671957 -0.765322 3.607474 29 53 65
1.671957 -0.765322 3.607474 29 53 65
1.816290 0.825938 3.915053 115 138 146
1.815887 0.791330 3.907597 122 145 153
1.843872 1.540302 3.960473 111 131 136
1.571461 0.087830 3.369777 54 75 83
1.817142 0.742231 3.899766 115 137 143
1.675336 0.438468 3.592265 61 87 94
1.833675 0.876071 3.930318 115 144 148
1.678809 0.416908 3.584199 126 153 157
1.767600 0.648104 3.769964 54 81 91
1.830327 0.774523 3.900855 136 159 161
1.837186 1.276736 3.907269 106 130 136
1.551661 0.220549 3.278876 57 80 88
1.560595 0.235797 3.281060 132 152 157
1.713397 -0.672703 3.612116 61 83 89
1.873693 1.575532 3.938823 162 178 185
1.594098 0.038802 3.344506 115 135 140
1.606160 0.120920 3.368658 65 91 98
1.721320 -0.774426 3.602542 53 75 86
1.804286 0.661938 3.770235 116 135 142
1.803324 0.641138 3.764894 121 141 146
1.728366 -0.671773 3.610229 56 77 85
1.802296 0.627356 3.760552 125 144 151
1.584136 0.266819 3.297891 116 138 144
1.799137 0.591815 3.748745 100 124 130
1.654930 -0.383869 3.450498 55 72 81
1.604077 0.052308 3.336779 51 72 80
1.604077 0.052308 3.336779 51 72 80
1.798821 0.569333 3.740987 79 98 105
2.655224 -2.753347 5.551380 19 26 29
1.867711 1.243854 3.870257 93 121 128
1.665215 -0.220372 3.436459 63 84 92
1.628500 0.118185 3.348014 107 129 135
1.628500 0.118185 3.348014 107 129 135
1.687884 -0.242448 3.465045 76 100 106
1.781861 -0.502597 3.652332 60 72 74
1.798250 0.494457 3.676143 22 45 53
1.621127 0.263436 3.307133 59 88 97
1.797545 0.486854 3.671412 34 63 68
1.759284 -0.777393 3.598170 112 134 140
1.759284 -0.777393 3.598170 112 134 140
1.758441 -0.741516 3.594579 113 133 138
1.787194 -0.533127 3.647685 11 17 16
1.787194 -0.533127 3.647685 11 17 16
1.774498 -0.603340 3.617003 79 98 103
1.770654 -0.661869 3.609633 86 105 112
1.775214 -0.603461 3.617395 79 97 104
1.767486 -0.806756 3.602360 79 102 110
1.776904 -0.918454 3.616698 84 107 115
1.768016 -0.734947 3.596318 57 76 81
1.631359 0.266426 3.305244 69 100 109
1.771737 -0.713739 3.596855 89 107 114
1.776662 -0.885755 3.606192 99 118 125
1.931633 1.635608 3.913432 152 168 175
1.797169 -1.101984 3.645576 89 111 117
1.778122 -0.877277 3.606811 88 105 114
1.772333 -0.762466 3.593548 84 105 113
1.774397 -0.724997 3.595870 88 107 112
1.778679 -0.803591 3.605016 95 114 122
1.781094 -0.869105 3.608647 79 95 102
1.775154 -0.739714 3.593479 91 113 119
1.786024 -0.927339 3.616701 10 20 27
1.701351 -0.187364 3.436143 51 69 76
1.777671 -0.754463 3.588172 17 26 29
1.795500 -0.922483 3.618769 99 122 124
1.770738 -0.116372 3.503916 30 35 36
1.987579 1.649477 3.921848 74 93 98
1.797377 0.366301 3.540086 143 158 160
-13.641367 -0.970808 -27.350393 25 33 32
1.873501 0.690740 3.660633 122 151 156
2.927318 2.980247 5.746047 46 58 62
1.780430 -0.222944 3.458098 105 124 127
2.011620 1.645686 3.902680 127 146 153
1.805781 -0.665639 3.505306 58 84 91
1.805781 -0.665639 3.505306 58 84 91
2.001475 1.419685 3.854741 90 116 122
2.025548 1.371161 3.843480 88 109 111
2.047826 1.512465 3.870109 88 110 116
1.999576 1.034331 3.775427 94 120 126
1.999576 1.034331 3.775427 94 120 126
1.835394 0.342832 3.456496 135 156 164
2.075501 1.635829 3.891964 93 119 125
2.004657 0.951855 3.758493 83 109 116
2.004657 0.951855 3.758493 83 109 116
2.026686 1.145827 3.796771 80 106 112
2.029076 1.158747 3.799444 80 108 115
2.077584 1.592769 3.885788 141 160 163
2.052828 1.317427 3.832771 82 111 116
2.050484 1.257773 3.817713 86 114 121
2.032646 1.071035 3.781813 86 114 121
2.068714 1.410898 3.846089 71 99 106
2.095233 1.630545 3.887752 85 107 113
2.095233 1.630545 3.887752 85 107 113
2.066901 1.319653 3.828789 85 115 126
2.059454 1.235945 3.811660 87 108 116
2.031033 0.951581 3.755972 85 113 120
2.092150 1.498644 3.862833 84 110 116
2.049819 1.075516 3.779143 96 120 126
2.117643 1.580159 3.876041 81 107 113
1.797121 -0.342153 3.284326 77 106 111
2.110380 1.463472 3.850955 93 113 118
2.076934 1.067914 3.774979 83 109 115
2.135910 1.548594 3.868272 80 106 113
2.095260 1.121321 3.784803 76 104 111
1.853115 -1.133141 3.347268 111 133 138
2.137082 1.433677 3.843375 81 107 113
2.095465 1.053499 3.768696 86 110 116
2.135177 1.366525 3.830261 86 107 115
1.864702 -1.138755 3.343147 22 34 36
1.892114 -0.899480 3.390413 55 81 88
2.158414 1.504261 3.859061 80 106 112
1.934075 0.703557 3.445409 90 116 122
2.102120 0.946545 3.747286 79 110 119
1.947546 0.783695 3.459791 89 113 119
1.881653 -1.129476 3.344096 90 106 113
1.921863 0.413457 3.389604 89 113 119
2.163071 1.307942 3.815763 91 117 123
1.934869 0.521232 3.409933 95 117 122
2.160894 1.245441 3.801860 81 107 113
2.125542 0.925787 3.739832 79 107 118
2.144576 1.078362 3.769645 83 112 117
1.938184 0.463351 3.397582 83 104 106
1.938184 0.463351 3.397582 83 104 106
1.972115 0.733102 3.446104 83 107 113
1.972115 0.733102 3.446104 83 107 113
2.159042 1.134012 3.777213 71 100 109
1.908606 -1.127955 3.339648 111 128 131
2.161696 1.128158 3.777054 138 160 166
2.161696 1.128158 3.777054 138 160 166
2.207510 1.520578 3.854150 136 157 159
2.179192 1.263013 3.802762 91 113 119
2.184286 1.272330 3.805409 77 105 112
1.932011 0.284939 3.360879 90 112 117
1.932011 0.284939 3.360879 90 112 117
1.956607 -0.776191 3.407526 76 102 109
1.936568 0.301699 3.363271 97 117 122
1.936568 0.301699 3.363271 97 117 122
1.960969 0.480926 3.396822 88 110 115
1.940562 0.290283 3.360675 88 107 114
1.978839 0.623063 3.425356 77 110 119
1.988034 0.701880 3.440620 81 114 123
2.183743 1.155212 3.781469 91 115 121
1.927569 -1.122504 3.336661 109 128 135
1.943352 0.262186 3.355003 92 114 119
1.943352 0.262186 3.355003 92 114 119
2.214744 1.373839 3.822525 81 110 115
2.220350 1.396036 3.826893 138 157 164
2.222539 1.392969 3.823579 84 110 116
1.953738 0.277526 3.355698 83 107 113
2.001070 0.670177 3.431557 77 109 120
2.252029 1.567025 3.858812 76 102 108
2.253737 1.580637 3.860422 84 110 117
2.223310 1.299164 3.806826 83 111 118
2.015182 0.729351 3.443116 83 112 119
2.215468 1.192993 3.786149 85 109 115
1.906323 -0.257325 3.250691 92 116 122
1.916194 -0.213345 3.258575 79 103 109
2.218969 1.143549 3.774718 83 112 117
