ply
format ascii 1.0
element vertex 1235
property float x
property float y
property float z
property uchar red
property uchar green
property uchar blue
end_header
-5.970565 -2.444478 7.124183 93 119 126
-6.000350 -2.443622 7.169747 28 59 68
-5.929030 -2.493354 7.091652 94 126 131
-5.911393 -2.497535 7.081324 25 60 70
-5.969911 -2.514600 7.184786 36 55 62
-8.499544 -3.489780 10.591082 89 107 114
-3.088622 -0.398216 3.962129 157 173 180
-3.125213 -0.310641 4.028354 156 175 183
-5.487167 -2.382979 7.192253 45 76 85
-3.119527 -0.295814 4.031692 147 168 176
-3.107230 -0.309141 4.029736 89 120 129
-3.109492 -0.275336 4.038481 149 167 178
-3.089523 -0.259601 4.045630 114 138 150
-4.148434 -3.113266 5.540112 51 81 92
-2.959640 -0.577698 3.970784 60 88 99
-4.587985 2.449734 6.321346 168 180 184
-2.922327 -0.324135 4.011403 69 98 107
-2.922327 -0.324135 4.011403 69 98 107
-2.917814 -0.333314 4.010733 48 79 94
-2.893314 -0.354527 4.004216 79 111 122
-2.886908 -0.268087 4.023205 87 113 120
-2.853944 -0.484826 3.981800 82 111 118
-2.853944 -0.484826 3.981800 82 111 118
-2.857262 -0.462681 3.990617 97 124 134
-2.843137 -0.503107 3.984900 98 128 139
-2.850537 -0.472282 3.997593 26 44 51
-2.884631 -0.289036 4.049605 38 64 76
-2.887148 -0.279346 4.054857 87 120 129
-2.918903 -0.221553 4.109029 116 136 147
-2.918903 -0.221553 4.109029 116 136 147
-2.889152 -0.250876 4.067674 105 123 134
-2.882122 -0.256614 4.062669 139 161 172
-2.865998 -0.296898 4.053014 141 161 172
-2.900275 -0.227842 4.106739 117 143 157
-2.900275 -0.227842 4.106739 117 143 157
-2.933258 -0.200582 4.166710 111 135 147
-2.750830 -0.406610 3.922621 55 83 94
-2.757597 -0.355210 3.939247 50 72 84
-2.748544 -0.344137 3.963604 91 120 135
-4.312783 2.475028 6.321769 169 181 185
-2.892574 -0.167108 4.207332 79 106 116
-4.276501 2.476197 6.315648 168 180 184
-2.683428 -0.379219 3.931688 88 117 126
-2.865088 -0.188889 4.209709 105 131 143
-2.881338 -0.161576 4.236618 80 111 120
-2.747194 -0.253100 4.042905 122 141 154
-2.852052 -0.185990 4.218834 102 132 143
-2.857156 -0.176426 4.230435 145 166 174
-2.663848 -0.440225 3.961822 60 93 102
-2.842245 -0.174378 4.243587 153 171 178
-2.646401 -0.368834 3.945288 95 124 133
-2.843043 -0.173757 4.257204 146 165 172
-8.880243 1.513673 13.575192 20 44 50
-2.852011 -0.166441 4.272450 76 108 121
-4.184327 2.486863 6.318282 165 178 180
-2.863132 -0.158978 4.295321 123 147 153
-8.804104 1.648670 13.601664 82 121 129
-2.630904 -0.332559 3.984286 167 183 189
-4.114056 2.494491 6.321090 168 177 181
-2.584190 -0.377749 3.937192 144 166 172
-4.055354 2.503339 6.324198 156 167 171
-2.765870 -0.199517 4.278718 101 124 132
-3.333892 -3.080059 5.201748 71 89 100
-4.047382 2.498826 6.319706 162 175 177
-8.516572 1.277042 13.545824 42 81 90
-4.010360 2.501923 6.313725 167 176 179
-3.956105 2.507007 6.318686 160 172 174
-3.917589 2.511812 6.323406 159 172 174
-8.193984 1.554332 13.517671 45 87 100
-2.558853 -0.242893 4.223540 100 117 130
-2.572277 -0.229856 4.251990 121 139 146
-2.493402 -0.274085 4.194715 86 109 117
-2.495883 -0.261929 4.207311 89 111 123
-2.495883 -0.261929 4.207311 89 111 123
-2.468473 -0.321796 4.162226 61 91 102
-2.482913 -0.285381 4.187409 82 104 116
-2.472796 -0.286961 4.190123 88 114 128
-2.470243 -0.275886 4.201190 96 115 123
-2.470243 -0.275886 4.201190 96 115 123
-2.449935 -0.303800 4.184378 85 110 120
-2.449935 -0.303800 4.184378 85 110 120
-2.457078 -0.279183 4.199719 99 122 130
-2.453158 -0.283576 4.196008 144 163 166
-2.444496 -0.284245 4.197656 90 115 125
-2.439225 -0.300427 4.190684 56 93 107
-2.426904 -0.303679 4.188795 80 110 121
-2.426904 -0.303679 4.188795 80 110 121
-7.558708 3.305807 13.376986 75 103 110
-2.420234 -0.287862 4.200705 91 120 129
-2.414708 -0.298753 4.192044 76 103 113
-3.105605 -2.944200 5.455386 33 61 68
-3.105605 -2.944200 5.455386 33 61 68
-2.404420 -0.317487 4.187616 62 97 107
-7.579206 3.222951 13.508144 27 70 85
-2.396525 -0.302050 4.193125 129 158 165
-3.071849 -2.974594 5.426245 110 134 140
-3.033489 -3.001313 5.356870 82 110 117
-3.071211 -2.964412 5.423492 32 61 66
-2.398552 -0.294968 4.200025 51 82 97
-3.098365 -2.964126 5.484437 49 68 75
-3.098365 -2.964126 5.484437 49 68 75
-3.547203 2.541648 6.312616 154 167 169
-2.990008 -3.047878 5.334932 19 45 51
-2.980328 -3.045348 5.316566 113 135 140
-7.204352 3.101173 13.029416 126 165 173
-7.204987 3.101380 13.030826 126 165 173
-2.997307 -3.044942 5.357025 36 58 63
-2.963029 -3.056238 5.303481 125 145 150
-2.963029 -3.056238 5.303481 125 145 150
-3.053800 -3.045926 5.468917 25 37 39
-7.159924 3.106590 12.997624 147 189 196
-2.361003 -0.473311 4.209821 49 78 87
-2.974739 -3.057071 5.346674 117 137 142
-7.101527 3.164993 12.998526 135 181 189
-7.121387 3.171202 13.036407 135 181 189
-3.482961 2.548856 6.313651 157 172 174
-7.220024 3.080937 13.270819 43 74 77
-2.988397 -3.080127 5.448088 111 130 135
-7.173487 3.104789 13.274307 37 63 70
-7.143049 2.832118 13.276938 109 150 153
-2.981804 -3.065081 5.480530 61 88 92
-2.935347 -3.080974 5.397811 115 134 141
-6.493255 -4.095335 12.109623 87 106 111
-7.183614 2.818572 13.408395 129 165 171
-7.070259 3.274018 13.255615 41 71 82
-7.085817 2.874779 13.291510 130 167 175
-7.027316 3.213464 13.245078 54 83 90
-7.027316 3.213464 13.245078 54 83 90
-2.273757 0.058479 4.206810 102 119 122
-7.014188 3.336362 13.278666 52 85 94
-6.970000 3.361634 13.255931 26 67 76
-7.091750 1.489356 13.512747 37 82 95
-7.091750 1.489356 13.512747 37 82 95
-6.869967 3.437613 13.203549 126 172 180
-3.324993 2.562884 6.310743 155 168 170
-3.300264 -1.890582 6.282744 57 82 86
-3.268958 -2.304597 6.226198 80 101 103
-6.989325 3.015337 13.446085 30 66 76
-2.790553 -3.044115 5.301252 62 90 97
-2.790553 -3.044115 5.301252 62 90 97
-2.794105 -3.062842 5.311096 122 142 147
-2.785270 -3.049165 5.294116 126 148 153
-2.186824 -0.110811 4.122051 101 117 123
-3.256541 -2.440101 6.214231 93 117 123
-6.959377 3.058077 13.427407 103 149 160
-3.247236 -2.439535 6.203193 134 156 162
-3.251623 -2.386050 6.215574 66 88 93
-6.964366 2.967037 13.450121 49 84 94
-2.773088 -3.049743 5.287135 53 78 88
-3.327285 -1.846082 6.370781 49 71 77
-3.240875 -2.301496 6.228346 48 68 73
-3.240875 -2.301496 6.228346 48 68 73
-3.274052 -1.910202 6.298630 115 135 140
-3.244997 -2.274347 6.245478 98 120 126
-6.936255 3.385047 13.491330 42 69 79
-3.238576 -2.293546 6.239130 93 115 121
-2.198553 0.074260 4.191894 95 124 131
-3.233331 -2.383641 6.234095 31 51 56
-3.231445 -2.353265 6.240682 94 116 122
-3.222319 -2.386998 6.230100 95 117 122
-3.222319 -2.386998 6.230100 95 117 122
-3.214432 -2.437003 6.220227 43 77 83
-3.218063 -2.360806 6.234446 41 58 61
-6.953712 2.975296 13.612096 91 135 148
-3.213271 -2.428090 6.227263 90 120 125
-3.220912 -2.436667 6.242600 98 124 130
-3.210661 -2.439814 6.238417 40 69 74
-6.884510 3.128038 13.508888 132 171 179
-6.734504 3.414910 13.276967 129 168 176
-3.271100 -1.909306 6.388043 132 151 154
-6.733055 3.437009 13.326341 134 176 183
-6.748928 3.393456 13.418045 56 84 91
-6.635657 3.448727 13.219258 128 170 182
-6.799988 3.054706 13.583763 107 150 159
-2.092757 -0.347269 4.090445 61 94 103
-3.171508 -2.390143 6.277155 102 124 129
-2.057471 -0.324120 4.061634 58 85 95
-3.216197 -1.928238 6.431313 60 86 92
-2.147058 0.471498 4.250508 125 154 159
-2.053718 -0.326170 4.068826 81 112 121
-6.678043 3.147952 13.541322 46 84 89
-2.140198 0.455355 4.244506 61 90 97
-3.179214 -1.938694 6.382397 53 82 89
-6.455303 3.163363 13.106886 121 162 171
-6.423867 3.198103 13.065611 109 152 161
-3.197045 -1.952103 6.443183 54 85 94
-6.712309 3.092609 13.691188 115 156 165
-6.398711 3.212739 13.065932 143 183 188
-3.120041 2.574541 6.314350 75 100 104
-6.336605 3.248718 13.007279 133 175 182
-2.025238 -0.346462 4.066204 137 157 162
-6.639457 3.155942 13.637319 46 75 84
-2.030997 -0.398041 4.080538 74 106 117
-2.030997 -0.398041 4.080538 74 106 117
-2.022314 -0.325390 4.063458 141 163 169
-2.067657 0.110637 4.156168 72 102 113
-2.060699 0.349364 4.149807 126 154 161
-2.033716 -0.438374 4.097706 72 100 107
-6.520563 3.194563 13.444073 115 158 167
-6.520563 3.194563 13.444073 115 158 167
-2.088384 0.406414 4.210235 131 154 156
-2.069151 0.367609 4.170362 137 161 167
-6.333045 3.222266 13.063769 141 178 182
-2.112824 0.444938 4.264735 56 88 101
-6.336027 3.223578 13.072256 145 179 185
-3.098390 -2.333048 6.335539 97 118 120
-3.154097 -1.956901 6.452511 136 156 157
-2.087832 0.412539 4.224567 57 83 89
-3.159409 -1.858473 6.481972 32 57 61
-6.632106 3.132395 13.744260 112 155 164
-2.059099 0.366420 4.172738 59 88 95
-2.092892 0.411878 4.253097 78 107 114
-6.411458 3.198346 13.312737 34 60 66
-2.000359 -0.363599 4.066378 67 95 102
-2.000359 -0.363599 4.066378 67 95 102
-6.424629 3.221024 13.405343 40 64 70
-2.080177 0.416773 4.246744 50 79 88
-2.039422 0.353249 4.162018 52 81 88
-6.252608 3.310315 13.069836 106 146 151
-1.982233 -0.377732 4.057462 141 167 174
-2.079345 0.441338 4.265655 66 94 101
-1.933846 -0.121600 3.977738 107 126 131
-2.006438 0.336233 4.134035 75 104 111
-1.960244 -0.375507 4.044604 147 166 171
-6.229080 3.367132 13.185641 41 77 87
-6.233039 3.370510 13.208975 30 66 76
-6.220008 3.385352 13.193615 127 173 181
-2.063434 0.456772 4.284010 64 90 96
-6.212496 3.401022 13.244091 32 70 75
-2.061543 0.470645 4.304667 121 145 151
-1.929393 -0.392632 4.032053 80 114 120
-1.929393 -0.392632 4.032053 80 114 120
-1.933235 -0.395509 4.040221 81 115 121
-1.930502 -0.394975 4.034576 81 115 121
-6.252442 3.013713 13.366686 36 72 78
-6.237653 3.024922 13.344294 125 160 164
-2.054781 0.460782 4.302227 57 80 88
-1.954008 0.320741 4.106596 138 162 168
-6.418683 3.002265 13.826680 123 159 165
-6.424040 3.003996 13.838869 125 163 168
-2.039478 0.437721 4.299921 53 85 91
-2.044566 0.471486 4.315489 58 85 95
-6.223392 3.110785 13.430904 86 128 133
-6.074624 3.466265 13.131621 126 169 178
-1.911896 -0.375884 4.041796 127 146 151
-6.109767 3.481571 13.214591 125 168 177
-1.856759 -0.125518 3.933412 164 184 189
-1.883713 -0.334574 4.016705 123 145 151
-6.171882 3.175583 13.469186 26 62 72
-1.878281 -0.339980 4.018537 147 167 172
-6.147178 3.166565 13.461971 96 135 144
-6.239478 3.071160 13.677388 48 79 88
-1.840857 -0.069215 3.942900 111 135 141
-1.883994 -0.396598 4.040152 60 92 103
-1.883994 -0.396598 4.040152 60 92 103
-1.871371 -0.356849 4.023714 63 95 106
-6.123500 3.188998 13.494237 99 138 146
-6.016897 3.427707 13.255832 40 78 83
-5.995246 3.436864 13.227402 139 177 182
-5.984792 3.441480 13.241378 51 89 94
-1.986377 0.403935 4.309038 66 99 108
-2.965595 -1.853010 6.515351 68 97 104
-5.982676 3.475137 13.284783 141 178 186
-5.946821 3.473545 13.231421 135 172 180
-6.065160 3.298736 13.545809 109 152 161
-5.896555 3.487623 13.187308 134 171 179
-2.571789 -2.858851 5.707321 68 96 103
-1.815410 -0.371466 4.016402 152 171 176
-5.920307 3.453885 13.454149 50 79 88
-5.942171 3.199872 13.522530 39 78 86
-5.990581 2.840165 13.649155 73 119 130
-5.919658 3.207151 13.493006 114 154 159
-6.017506 3.057660 13.733074 125 162 170
-2.318935 -3.037311 5.239605 106 128 133
-2.318935 -3.037311 5.239605 106 128 133
-5.883456 3.230725 13.487707 125 164 172
-1.930784 0.386385 4.331283 57 93 103
-6.018125 3.176656 13.816200 125 161 169
-5.839035 3.226055 13.416310 123 160 168
-2.793386 2.909078 6.341134 110 125 128
-2.307986 -3.034007 5.252448 59 88 97
-1.873325 0.190600 4.225665 58 85 95
-5.804219 1.809541 13.467987 63 100 108
-1.877502 0.305116 4.259889 62 97 110
-1.772074 -0.392108 4.016291 52 79 89
-5.814846 3.326301 13.516391 122 159 167
-5.865800 3.210036 13.642101 67 96 101
-5.865800 3.210036 13.642101 67 96 101
-5.850751 2.736633 13.615677 63 109 117
-5.835731 2.730192 13.616440 119 165 176
-5.702336 1.976059 13.469598 70 115 126
-1.850068 0.318253 4.307041 61 96 109
-1.727288 -0.154605 4.031940 76 107 116
-1.706035 -0.287852 3.982747 71 100 109
-1.706035 -0.287852 3.982747 71 100 109
-1.703651 -0.327660 4.000457 40 62 68
-1.678481 -0.333246 4.009573 59 82 90
-1.680216 -0.323734 4.015574 54 83 90
-1.799728 0.295265 4.312845 57 88 97
-1.658405 -0.357617 3.980888 134 159 161
-1.644075 -0.363894 3.977691 73 100 110
-1.641215 -0.327466 3.978262 120 149 154
-1.642524 -0.328660 3.981745 119 148 153
-1.616936 -0.402401 3.994691 60 79 87
-2.380897 2.989372 6.339133 104 119 122
-2.380897 2.989372 6.339133 104 119 122
-1.600849 -0.793221 4.258855 85 112 116
-1.532095 0.063892 4.119859 103 126 134
-1.850866 -3.004551 5.025576 67 89 95
-1.519030 0.031989 4.094281 94 120 127
-1.464505 -0.298701 3.950471 139 161 166
-1.489428 -0.458167 4.021001 63 85 90
-1.424517 -0.223217 3.941238 108 127 132
-1.421691 -0.330355 3.936724 72 104 110
-1.433642 -0.024347 3.999254 106 128 134
-1.393711 -0.336085 3.902560 152 172 177
-1.834344 -3.012211 5.219813 49 78 85
-1.826935 -3.014881 5.215693 126 150 156
-1.383449 -0.182156 3.916332 114 136 141
-1.360116 -0.284907 3.868326 96 124 131
-1.364897 -0.256235 3.884090 90 119 133
-1.386773 -0.040734 3.948895 81 110 117
-1.363839 -0.230169 3.884057 105 135 140
-1.365219 -0.337129 3.891641 36 54 61
-1.365219 -0.337129 3.891641 36 54 61
-1.358048 -0.384955 3.900818 48 69 77
-1.368914 -0.058789 3.948623 142 167 171
-1.343053 -0.241534 3.873883 160 179 186
-1.333486 -0.342932 3.870983 150 169 174
-1.364416 0.010757 3.964378 153 175 181
-1.318382 -0.234754 3.850599 93 120 130
-1.341887 -0.096859 3.925501 57 88 97
-2.257446 2.687663 6.733800 0 16 19
-2.249996 0.671508 6.721680 119 144 148
-2.091471 -2.317075 6.275830 68 83 85
-1.312760 -0.121445 3.899795 136 164 171
-1.292766 -0.305757 3.832920 54 79 89
-2.204761 1.656661 6.685990 91 118 122
-1.296915 -0.400942 3.892743 118 140 146
-2.164399 1.915375 6.633583 111 134 136
-1.339567 0.112561 4.054359 75 107 118
-1.339567 0.112561 4.054359 75 107 118
-2.178581 0.644843 6.703410 113 140 144
-2.209612 0.823515 6.811675 94 136 143
-1.279002 -0.278875 3.896930 47 70 78
-1.279002 -0.278875 3.896930 47 70 78
-2.173580 0.719122 6.730391 93 121 122
-1.990009 -2.372086 6.154387 89 111 116
-2.161055 1.895495 6.705104 117 139 144
-2.156498 1.836480 6.695481 58 81 83
-2.030336 2.837672 6.304226 99 116 119
-1.288833 -0.010754 3.959060 62 88 94
-1.341740 0.212856 4.160395 139 168 173
-1.325693 0.197189 4.136979 133 161 168
-1.248807 -0.290798 3.892656 46 71 81
-2.109116 1.919615 6.689304 39 60 62
-2.158173 2.313705 6.836009 83 106 108
-1.248914 -0.052352 3.902031 145 167 173
-2.121913 0.729037 6.746238 112 143 146
-2.121913 0.729037 6.746238 112 143 146
-1.236258 -0.351301 3.882753 47 69 75
-2.115264 1.158638 6.744994 105 131 137
-2.115264 1.158638 6.744994 105 131 137
-2.124172 0.752507 6.785669 88 119 122
-1.786683 -2.384714 5.705010 160 178 179
-2.097350 1.222886 6.714941 38 57 62
-1.231428 -0.420693 3.907882 90 114 120
-1.229908 -0.477224 3.903489 113 133 138
-1.225512 -0.414816 3.891764 91 115 121
-1.907150 -2.357961 6.156925 121 142 143
-2.079239 1.044938 6.731341 134 152 153
-1.895610 -2.365418 6.167201 36 61 65
-1.889392 -2.371640 6.156455 134 154 159
-1.204556 -0.397558 3.874707 42 62 67
-2.094711 1.169762 6.847065 36 56 61
-2.106639 1.213926 6.900808 103 140 148
-1.188356 -0.148348 3.848548 87 111 117
-2.038792 1.961556 6.710263 40 60 65
-1.246650 0.141576 4.047658 117 137 142
-1.193677 -0.193281 3.866603 140 164 170
-1.884742 -2.339444 6.214939 25 37 41
-1.180681 -0.329168 3.855047 133 155 161
-2.025122 0.712125 6.762388 135 160 162
-1.851000 -2.381580 6.194580 133 151 152
-1.868388 -2.282218 6.253436 79 109 114
-1.860112 -2.361948 6.260205 31 53 59
-1.995852 2.076460 6.735162 100 123 125
-1.855014 -2.272281 6.264466 36 64 71
-1.856444 -2.293889 6.273944 44 76 82
-1.141063 -0.054482 3.844849 79 101 107
-1.968617 2.083163 6.748448 111 138 142
-1.979571 1.568168 6.789195 99 129 134
-1.979571 1.568168 6.789195 99 129 134
-1.977892 1.835856 6.808493 96 121 125
-1.970178 1.153882 6.829726 51 80 85
-1.972570 1.805506 6.842845 33 53 58
-1.107404 -0.041911 3.814533 86 110 116
-1.927217 2.138646 6.761432 119 136 139
-1.943092 1.932551 6.834277 39 59 64
-1.943092 1.932551 6.834277 39 59 64
-1.129313 0.222487 3.922880 89 114 124
-1.912653 1.487434 6.790921 100 130 135
-1.054941 -0.322867 3.704386 51 68 77
-1.908591 1.528757 6.845394 84 113 117
-1.033262 -0.343644 3.717610 60 89 98
-1.017912 -0.177309 3.665610 68 100 106
-1.053299 -0.544826 3.858637 27 48 56
-1.803208 0.716298 6.716076 100 134 140
-1.798957 0.696039 6.712763 89 121 126
-1.048221 -0.536548 3.853750 118 140 145
-1.382267 -2.982703 5.149407 109 135 141
-0.993758 -0.282197 3.663221 70 94 100
-1.798588 2.304041 6.756166 111 132 134
-1.832069 1.563599 6.895637 30 63 72
-0.991644 -0.295775 3.663233 66 90 96
-1.379044 -2.992671 5.184896 91 115 121
-1.379044 -2.992671 5.184896 91 115 121
-0.983694 -0.346999 3.658387 135 162 166
-0.953291 0.026521 3.541800 67 99 110
-1.803674 1.945656 6.845474 99 128 132
-1.781884 1.818724 6.824355 84 113 118
-0.969639 0.149066 3.665388 79 104 108
-0.938357 0.023482 3.550573 122 146 152
-0.932214 0.068899 3.628567 63 100 108
-0.941133 -0.421381 3.674277 55 77 83
-0.928984 0.376927 3.638028 90 118 125
-1.716101 1.958076 6.859663 26 50 56
-1.717484 1.959076 6.866886 26 50 56
-0.934831 0.102956 3.671058 105 134 141
-1.712107 1.908726 6.900874 57 81 87
-0.913701 0.419286 3.624626 148 170 175
-0.923628 0.101710 3.670687 111 140 147
-1.660698 1.135075 6.768281 101 135 141
-0.920126 -0.387410 3.683852 102 128 134
-1.674797 1.186782 6.843135 43 74 83
-0.913763 -0.412746 3.681510 103 132 139
-1.515360 -2.346756 6.229526 91 115 121
-0.877021 -0.082015 3.553247 115 140 144
-0.895411 0.370170 3.653925 65 94 101
-0.876245 -0.004922 3.581247 129 158 165
-0.875106 -0.004080 3.578214 132 159 169
-1.650120 1.928872 6.893517 89 118 123
-0.883414 -0.219975 3.688042 119 150 159
-0.884109 -0.324508 3.698700 83 114 123
-0.856079 -0.067194 3.578644 60 92 98
-1.611090 1.917122 6.892112 44 70 77
-0.875024 -0.316545 3.697176 117 146 153
-0.808932 0.303235 3.519715 144 168 174
-0.830091 0.156386 3.638514 98 117 124
-1.521584 1.956976 6.841367 120 145 147
-0.808513 -0.167063 3.628198 74 97 105
-0.786786 0.068725 3.568280 49 79 90
-0.786786 0.068725 3.568280 49 79 90
-0.777524 -0.001144 3.533589 147 172 176
-0.781591 0.052319 3.559964 78 107 114
-0.796452 -0.266174 3.637359 84 104 109
-0.793938 0.164301 3.630977 61 89 96
-1.335160 -2.333572 6.220417 89 114 118
-0.785244 0.189288 3.641340 130 156 162
-0.778305 0.169016 3.625985 149 169 174
-0.764417 0.142597 3.583761 148 170 176
-0.770597 -0.256219 3.616419 80 108 115
-0.750253 -0.184217 3.594365 83 111 118
-0.750253 -0.184217 3.594365 83 111 118
-0.727593 -0.000189 3.502888 141 163 168
-1.385690 1.942148 6.888020 46 72 78
-0.711775 0.045453 3.469861 155 174 181
-0.736078 -0.326421 3.596514 84 108 114
-1.129613 -2.341760 5.682642 100 119 124
-0.694033 0.024748 3.462711 39 58 65
-0.715866 -0.333497 3.580556 86 112 118
-0.691861 0.062968 3.473449 99 125 131
-0.688387 -0.009234 3.483347 78 100 106
-0.688998 -0.022978 3.486630 138 159 161
-0.695239 0.223145 3.526557 111 139 146
-0.703510 -0.375988 3.574119 88 110 116
-0.703510 -0.375988 3.574119 88 110 116
-0.703510 -0.375988 3.574119 88 110 116
-0.642336 -0.599318 3.252481 79 112 121
-0.640690 -0.573118 3.262717 70 99 108
-0.640690 -0.573118 3.262717 70 99 108
-1.308293 1.952239 6.880288 102 131 135
-0.734116 0.532864 3.804056 139 165 171
-0.732290 0.562311 3.823224 59 90 99
-0.732290 0.562311 3.823224 59 90 99
-0.682691 -0.421249 3.559486 77 99 105
-0.677845 -0.363246 3.556170 66 89 97
-0.677845 -0.363246 3.556170 66 89 97
-1.272345 1.990528 6.831456 44 76 82
-1.273939 1.977772 6.868947 47 79 85
-0.618532 -0.720378 3.273883 36 46 53
-0.643699 -0.014332 3.424262 110 128 135
-1.254403 1.928194 6.849798 126 155 160
-0.632520 -0.511325 3.401416 62 94 105
-0.654051 -0.414836 3.542342 96 115 122
-0.654476 -0.361786 3.545366 66 92 99
-0.868249 -2.751839 4.783747 29 45 51
-1.222046 1.941623 6.841508 111 135 141
-0.644952 -0.272436 3.552475 89 115 127
-0.594659 -0.645083 3.267481 108 137 142
-0.587832 -0.678714 3.254244 61 82 90
-0.675216 0.566953 3.856632 53 82 91
-0.573118 -0.668753 3.270266 47 71 83
-0.662710 0.581094 3.850092 99 128 135
-0.561205 -0.760394 3.257860 44 66 72
-0.649073 0.643331 3.831903 133 163 168
-1.127767 1.515094 6.825094 45 77 82
-0.883174 -2.893782 5.367985 89 108 111
-0.632774 0.445076 3.795137 126 159 168
-0.590717 0.241814 3.550127 91 120 125
-0.787784 -2.923171 4.823885 18 40 45
-0.787784 -2.923171 4.823885 18 40 45
-1.110776 1.905301 6.860253 52 78 84
-0.578716 -0.459599 3.499779 103 132 141
-0.867565 -2.740109 5.346622 110 137 147
-0.858913 -2.769158 5.333267 44 60 66
-0.858913 -2.769158 5.333267 44 60 66
-0.620823 0.469350 3.788225 56 83 93
-0.831413 -2.777383 5.300422 88 109 111
-0.836923 -2.769769 5.328961 20 33 35
-0.574839 0.328102 3.644722 126 165 174
-0.537163 -0.484919 3.399547 162 184 190
-0.825404 -2.770753 5.350230 92 118 125
-0.512400 -0.075121 3.263209 82 101 108
-0.590441 0.463104 3.794436 103 135 140
-0.592567 0.477077 3.814043 54 84 95
-0.532799 -0.462768 3.459798 156 175 180
-0.785638 -2.821266 5.186349 52 71 74
-0.552612 0.328469 3.655148 79 114 127
-0.491012 0.092138 3.298153 111 130 135
-0.959090 1.975316 6.849991 107 138 141
-0.476159 -0.518754 3.303063 100 124 130
-0.948840 1.958144 6.849294 117 144 148
-0.426331 -0.811314 3.044498 100 119 124
-0.426331 -0.811314 3.044498 100 119 124
-0.913248 1.999904 6.814076 114 143 147
-0.454275 -0.415493 3.296592 82 104 110
-0.451823 -0.501945 3.283023 104 126 131
-0.900537 2.021444 6.799589 47 79 84
-0.435479 -0.006428 3.190763 104 126 132
-0.878425 2.155138 6.685483 122 147 149
-0.869116 2.023367 6.794134 34 66 72
-0.430961 -0.380532 3.275089 100 120 125
-0.476411 0.381557 3.663546 68 103 113
-0.424958 -0.415326 3.265948 108 127 134
-0.402923 -0.475517 3.239709 99 119 124
-0.380479 -0.670424 3.053493 114 136 142
-0.380479 -0.670424 3.053493 114 136 142
-0.620074 -2.856199 5.103186 23 37 43
-0.620074 -2.856199 5.103186 23 37 43
-0.749183 2.995484 6.248686 77 97 102
-0.749183 2.995484 6.248686 77 97 102
-0.612152 -2.843346 5.097591 92 111 116
-0.615836 -2.836816 5.133588 99 118 123
-0.566506 -2.868178 4.760894 12 40 47
-0.368219 -0.674403 3.033511 112 131 138
-0.567203 -2.860553 4.776136 84 105 107
-0.605122 -2.855474 5.111664 13 29 36
-0.388523 -0.465161 3.224222 110 129 136
-0.597943 -2.860925 5.107556 88 112 118
-0.561917 -2.861959 4.799813 71 99 106
-0.382194 -0.410478 3.226114 86 105 112
-0.557626 -2.866294 4.806441 76 105 112
-0.377273 -0.395257 3.220001 95 117 123
-0.359682 0.043645 3.152479 114 136 142
-0.527671 -2.871640 5.007622 16 27 31
-0.527671 -2.871640 5.007622 16 27 31
-0.342142 -0.409580 3.182196 91 113 119
-0.526605 -2.862727 5.015239 111 130 137
-0.341189 -0.517890 3.183080 99 121 127
-0.675320 2.588290 6.621807 45 60 62
-0.517396 -2.882041 5.002798 27 45 52
-0.671416 2.565952 6.602953 55 70 73
-0.671416 2.565952 6.602953 55 70 73
-0.665098 2.536361 6.606084 59 71 75
-0.665098 2.536361 6.606084 59 71 75
-0.510985 -2.896028 4.997909 12 21 25
-0.300646 -0.784923 2.901808 103 122 127
-0.651517 2.459140 6.596780 62 79 82
-0.498841 -2.882397 5.001364 100 120 125
-0.319887 -0.469338 3.172493 88 111 119
-0.319887 -0.469338 3.172493 88 111 119
-0.493233 -2.855028 5.038150 38 64 71
-0.493233 -2.855028 5.038150 38 64 71
-0.626113 2.621436 6.611777 83 102 105
-0.301530 -0.032823 3.060144 108 130 135
-0.466548 -2.888672 4.990540 33 51 62
-0.588458 2.530321 6.461993 76 89 91
-0.285872 -0.024373 3.050639 100 124 130
-0.594411 2.568292 6.611757 51 69 70
-0.331355 0.402384 3.582096 77 107 118
-0.590226 2.426465 6.655432 104 123 126
-0.272254 -0.612862 2.944144 98 117 124
-0.272254 -0.612862 2.944144 98 117 124
-0.316164 0.409386 3.567310 96 122 128
-0.313056 0.421640 3.564176 99 123 129
-0.277243 -0.509222 3.120571 115 131 137
-0.251011 -0.526100 3.074374 117 133 139
-0.329237 0.736982 4.227338 41 67 79
-0.271436 0.319768 3.475851 110 132 138
-0.303968 0.648486 4.063202 109 143 149
-0.222919 -0.123891 2.966547 79 98 105
-0.232075 -0.426523 3.099732 89 109 114
-0.477554 2.563652 6.711426 15 34 39
-0.256826 0.362415 3.499427 96 118 123
-0.214069 -0.041852 2.976803 98 117 122
-0.191109 -0.610304 2.912465 37 53 60
-0.194064 -0.425498 3.055849 98 120 126
-0.163544 -0.749979 2.775847 139 161 167
-0.170444 -0.091160 2.926222 105 125 130
-0.168235 -0.084698 2.929240 82 104 110
-0.158287 -0.783860 2.756274 109 125 131
-0.163277 -0.123874 2.913152 84 106 112
-0.156906 -0.108038 2.910389 98 118 123
-0.178535 0.357740 3.404182 103 122 129
-0.141108 -0.825258 2.726053 139 163 169
-0.138222 -0.189321 2.903422 61 81 86
-0.127902 -0.103643 2.893309 75 97 102
-0.127902 -0.103643 2.893309 75 97 102
-0.129106 0.111387 3.095321 109 129 134
-0.129106 0.111387 3.095321 109 129 134
-0.117232 0.149552 3.131839 102 121 126
-0.117232 0.149552 3.131839 102 121 126
-0.104406 -0.879831 2.756314 27 40 42
-0.218366 2.524196 6.799179 102 127 131
-0.099705 0.044832 2.951693 76 100 106
-0.092172 -0.125951 2.854465 66 85 90
-0.068456 0.009518 2.909014 75 94 99
-0.070744 0.240791 3.136902 77 105 116
-0.025565 2.461345 6.633504 38 63 65
-0.024951 2.138807 6.567343 110 132 137
-0.016866 -0.111458 2.819282 49 61 65
-0.018247 0.648245 4.199566 55 90 100
-0.019331 2.855944 6.167123 67 87 88
-0.018667 2.814985 6.161663 39 61 66
-0.001997 2.113587 6.587726 96 125 129
-0.003609 -0.063012 2.837807 63 83 88
0.005996 2.005716 6.569877 47 70 72
0.014045 2.113886 6.606090 40 68 75
0.019072 2.006339 6.587983 55 81 87
0.021225 2.024003 6.585778 40 65 69
0.005240 -0.151914 2.807141 51 71 76
0.005240 -0.151914 2.807141 51 71 76
0.026293 0.636292 4.008644 129 160 169
0.021471 -0.710654 2.910899 73 102 109
0.022351 -0.188735 2.803712 52 72 77
0.025302 -0.688647 2.927797 69 98 107
0.025302 -0.688647 2.927797 69 98 107
0.026757 -0.863966 2.747721 138 163 167
0.035009 -0.101657 2.816672 101 122 123
0.060762 0.823154 4.026551 85 114 121
0.060762 0.823154 4.026551 85 114 121
0.041956 -0.251044 2.820143 65 89 95
0.042372 -0.703017 2.919257 69 100 109
0.043011 -0.084890 2.824185 56 76 81
0.043256 -0.187088 2.807379 46 65 70
0.048521 0.114314 3.006892 73 95 101
0.048943 -0.189062 2.809410 96 121 125
0.052603 -0.161532 2.813739 106 127 129
0.055520 -0.109487 2.815081 44 63 68
0.055520 -0.109487 2.815081 44 63 68
0.086486 0.921243 4.065212 94 125 134
0.086486 0.921243 4.065212 94 125 134
0.093110 0.799054 4.009198 73 99 105
0.089920 0.793988 3.987703 73 99 105
0.066882 -0.746408 2.881498 83 117 123
0.067214 -0.143072 2.817980 102 125 127
0.075404 -0.143096 2.818905 46 66 71
0.087656 -0.121942 2.822374 53 72 75
0.087656 -0.121942 2.822374 53 72 75
0.100000 -0.722983 2.903649 79 108 115
0.149657 0.837754 3.971670 102 124 130
0.111403 -0.553353 2.985528 63 85 91
0.110109 -0.677109 2.946422 65 95 106
0.124918 -0.668294 2.952238 63 89 101
0.124918 -0.668294 2.952238 63 89 101
0.135884 0.180186 3.080098 69 95 101
0.145385 0.180627 3.081593 143 168 172
0.206843 0.856872 3.907886 97 115 122
0.161291 -0.026206 2.881044 51 70 75
0.219580 0.574223 3.832344 85 117 128
0.240874 0.881982 3.881586 101 127 133
0.188199 0.010563 2.915425 48 73 77
0.188199 0.010563 2.915425 48 73 77
0.254797 0.767908 3.840865 107 136 141
0.254797 0.767908 3.840865 107 136 141
0.257385 0.762433 3.839576 80 112 118
0.201242 -0.621928 2.991495 63 92 106
0.203636 -0.615053 2.994664 122 151 156
0.201583 -0.665624 2.951705 57 88 97
0.268383 0.779054 3.837958 101 127 134
0.304032 1.916196 4.233115 25 40 43
0.310804 1.933421 4.311245 23 42 45
0.217984 -0.683799 2.926171 66 92 99
0.226309 -0.619491 2.991735 58 85 99
0.223198 -0.665429 2.946486 70 93 101
0.223198 -0.665429 2.946486 70 93 101
0.304023 0.910815 3.830339 80 115 125
0.304023 0.910815 3.830339 80 115 125
0.289918 0.433835 3.593048 104 131 141
0.323261 1.192434 3.973606 28 47 50
0.342601 1.202373 4.171949 28 49 51
0.239231 -0.680776 2.921379 72 97 107
0.250486 -0.551851 3.028777 61 91 102
0.299896 0.431667 3.585807 112 138 145
0.299896 0.431667 3.585807 112 138 145
0.311329 0.492118 3.623488 89 120 129
0.311329 0.492118 3.623488 89 120 129
0.253404 -0.082194 2.908228 31 43 45
0.262138 -0.588741 3.010008 51 78 92
0.457188 -2.789044 4.911437 25 34 37
0.520790 2.161218 5.490239 88 108 109
0.521298 2.161616 5.492008 92 112 113
0.287153 -0.562647 3.025553 35 61 73
0.264493 -0.768617 2.756274 99 122 130
0.346916 0.438703 3.559028 93 118 128
0.472065 -2.790874 4.880024 22 37 40
0.471035 -2.750082 4.869120 19 37 44
0.352020 0.449673 3.560048 90 118 129
0.352020 0.449673 3.560048 90 118 129
0.282135 -0.699669 2.875291 87 115 122
0.384135 0.896500 3.842867 101 137 145
0.381632 0.724951 3.786723 78 106 113
0.403198 0.919044 3.879349 111 144 153
0.405236 0.897706 3.863986 42 75 84
0.470229 -2.727609 4.569964 90 106 112
0.472115 -2.728373 4.559416 32 51 54
0.419565 0.935277 3.899014 120 156 162
0.323347 -0.584223 3.003850 68 94 101
0.429743 0.922621 3.892090 68 106 118
0.418393 0.755740 3.778399 100 129 136
0.299720 -0.765166 2.737273 76 100 106
0.328102 -0.601541 2.978669 131 151 156
0.538462 -2.791415 4.920686 33 45 49
0.336402 -0.580373 3.000878 69 98 103
0.344619 0.081984 3.029125 52 76 82
0.344619 0.081984 3.029125 52 76 82
0.569349 -2.764181 5.019507 35 54 61
0.574681 -2.754185 5.029315 31 50 55
0.406949 0.363316 3.472101 150 176 183
0.454636 0.871410 3.869542 69 105 115
0.580705 -2.762724 5.013300 30 49 54
0.465360 0.908026 3.885754 63 98 111
0.362021 -0.578570 2.992814 80 104 110
0.366374 -0.601539 2.961651 70 94 100
0.617468 -2.749756 5.031829 29 45 61
0.612762 -2.760872 4.986823 22 36 42
0.574250 -2.749256 4.587480 76 91 93
0.586657 -2.749492 4.646202 7 16 20
0.587752 -2.753921 4.651642 11 22 26
0.593065 -2.769821 4.664030 15 20 21
0.593065 -2.769821 4.664030 15 20 21
0.645060 -2.735173 5.010644 38 57 62
0.645060 -2.735173 5.010644 38 57 62
0.357000 -0.791900 2.688453 137 162 166
0.613987 -2.772139 4.660498 75 87 91
0.647562 -2.747019 4.910015 75 97 103
0.616628 -2.751463 4.671471 71 86 89
0.649777 -2.755044 4.891797 91 113 119
0.640963 -2.759012 4.703664 85 104 109
0.701913 -2.768359 4.911460 84 102 109
0.700363 -2.771381 4.888905 71 89 96
0.534611 0.677630 3.586952 103 131 138
0.457055 -0.466137 3.061813 81 112 121
0.482655 -0.437742 3.076354 69 98 107
0.765494 -2.772318 4.870440 83 99 105
0.773768 -2.774147 4.929709 90 105 108
0.487008 -0.482077 3.035971 75 110 120
0.507100 -0.435794 3.072018 70 99 113
0.600867 0.419553 3.621136 72 103 112
0.515458 -0.431064 3.074085 59 91 104
0.599521 0.632548 3.454989 90 119 126
0.599521 0.632548 3.454989 90 119 126
0.602141 0.655914 3.457860 87 115 122
0.543965 -0.413448 3.085038 72 104 115
0.609185 0.597691 3.435612 80 106 112
0.514999 -0.582822 2.873611 73 99 105
0.637974 0.697282 3.454693 139 165 171
0.659182 0.349143 3.504258 52 81 95
0.657641 0.685845 3.446131 127 156 161
0.667636 0.351783 3.505364 56 90 103
0.676307 0.757819 3.522335 88 118 123
0.597878 -0.386067 3.089175 86 122 130
0.597878 -0.386067 3.089175 86 122 130
0.670024 0.315531 3.434879 79 112 121
0.615115 -0.405239 3.064544 94 123 132
0.615115 -0.405239 3.064544 94 123 132
0.626615 -0.345556 3.115711 91 120 127
0.693896 0.603122 3.413351 57 85 96
0.694842 0.629574 3.416149 56 87 96
0.695993 0.596519 3.411238 63 92 101
0.700525 0.583209 3.411891 55 80 90
0.951293 0.662668 4.633637 102 130 137
0.715646 0.684559 3.433271 147 173 179
0.720948 0.728904 3.451063 148 172 178
0.655770 -0.286863 3.152601 50 84 97
0.646461 -0.354804 3.102642 85 114 123
0.723037 0.684218 3.429089 80 106 113
0.614154 -0.551303 2.849811 124 148 154
0.778304 0.658170 3.448686 42 61 69
0.721938 -0.366710 3.054556 88 119 128
0.722184 -0.374150 3.043324 97 126 133
0.728933 -0.365704 3.049350 88 119 128
0.705490 -0.452177 2.925108 116 141 145
0.720740 -0.424423 2.973428 48 73 83
0.744986 -0.344278 3.061773 73 102 109
0.744986 -0.344278 3.061773 73 102 109
0.740597 -0.363833 3.040375 81 110 119
0.723927 -0.516883 2.954630 43 61 68
0.717880 -0.446745 2.931950 54 83 92
0.768548 -0.300120 3.078900 131 157 164
0.778859 -0.263481 3.101589 86 112 118
0.770810 -0.324410 3.061330 140 163 165
0.785127 -0.239406 3.118866 132 160 167
0.779672 -0.278005 3.090812 91 120 127
1.466411 1.313888 5.784973 53 83 88
0.839485 -0.083507 3.264600 109 138 145
0.816262 -0.188917 3.134055 119 148 153
0.828743 -0.184017 3.134419 117 143 149
0.839244 -0.177620 3.136589 102 127 131
0.920719 0.139368 3.393942 69 101 112
1.135280 0.735301 4.111142 20 49 64
1.135280 0.735301 4.111142 20 49 64
0.943523 0.165348 3.402464 62 95 110
0.943523 0.165348 3.402464 62 95 110
0.932598 0.053880 3.316496 64 93 102
0.924248 -0.012964 3.276660 113 139 145
0.814890 -0.528532 2.877531 64 93 102
1.209759 0.742988 4.120737 30 59 73
1.209759 0.742988 4.120737 30 59 73
0.904983 -0.113393 3.029057 84 115 124
1.078492 0.344577 3.611786 84 113 120
0.921742 -0.429967 3.045400 118 141 149
1.222000 0.647046 4.031533 30 49 56
0.913713 -0.164147 2.989867 68 95 105
0.961212 -0.369323 3.146793 117 145 152
0.920520 -0.162461 3.001743 57 86 95
0.916816 -0.179373 2.991457 62 94 100
0.921546 -0.473839 2.994184 123 145 150
0.928873 -0.184086 2.986818 134 159 163
0.926804 -0.191133 2.972707 45 67 73
0.944710 -0.454582 3.028580 57 75 82
1.484956 -2.816397 4.824652 19 38 43
0.933960 -0.184845 2.979000 130 156 163
1.037201 -0.006979 3.308893 122 151 158
1.061594 0.020333 3.339546 73 105 118
1.060060 -0.030673 3.269068 78 111 120
1.060060 -0.030673 3.269068 78 111 120
1.071568 -0.029153 3.269039 47 79 90
1.140088 0.256733 3.449779 86 113 123
1.001238 -0.159207 2.992151 112 140 147
1.021089 -0.172719 2.978308 127 151 157
1.046695 -0.298472 3.040689 105 121 127
1.043180 -0.152416 2.993803 137 159 164
1.052604 -0.137569 3.010847 123 149 155
1.070511 -0.111953 3.044796 38 62 74
1.050707 -0.358008 2.957713 107 129 134
1.075041 -0.323577 3.011593 30 43 45
1.075041 -0.323577 3.011593 30 43 45
1.115135 -0.021085 3.124371 102 124 130
1.117707 -0.010404 3.118964 104 123 131
1.077942 -0.610235 3.003457 123 143 148
1.104951 -0.130093 3.034513 110 134 140
1.129536 -0.016188 3.083588 94 118 124
1.115310 -0.341278 3.041354 109 128 133
1.130698 0.000147 3.080432 91 115 121
1.121439 -0.250352 3.052349 85 107 113
1.123498 -0.235220 3.052022 87 109 114
1.136752 -0.019795 3.080019 152 171 176
1.242580 0.274674 3.362405 69 94 104
1.142071 -0.251122 3.068353 26 38 42
1.276157 0.446652 3.429523 76 108 114
1.118635 -0.147763 2.996471 45 62 65
1.140937 -0.258120 3.059149 95 117 123
1.147251 -0.050634 3.062589 56 78 89
1.284059 0.443578 3.416099 49 76 86
1.148633 0.004083 3.045914 129 149 154
1.157923 -0.002192 3.041915 121 143 148
1.169986 -0.086034 3.072320 60 79 86
1.171413 -0.096359 3.068421 66 92 98
1.299939 0.455919 3.391504 76 107 116
1.171284 0.035585 3.039436 62 89 99
1.171284 0.035585 3.039436 62 89 99
1.374896 0.864745 3.554370 85 108 116
1.176127 0.061191 3.030077 145 167 172
1.355535 0.620661 3.495144 69 97 104
1.361558 0.734169 3.503703 91 113 119
1.112881 -0.417335 2.860405 36 63 73
1.204664 0.119072 3.077398 43 72 79
1.195943 0.006479 3.047194 41 60 67
1.361851 0.597156 3.470848 82 111 118
2.279547 2.617165 5.860859 40 56 62
1.199641 -0.041995 3.051891 68 88 93
1.198308 0.011893 3.046444 93 115 120
1.199622 -0.008436 3.049107 122 143 145
1.199832 0.017168 3.045321 56 78 84
1.203226 -0.009754 3.057036 117 138 140
1.202855 0.012084 3.044629 93 118 122
1.316582 0.420660 3.321729 77 105 112
1.174835 -0.341843 2.961314 52 73 81
1.204572 0.051811 3.030470 36 54 61
1.168324 -0.113857 2.924930 141 160 165
1.183776 -0.340743 2.966643 119 141 147
1.219268 0.012539 3.046674 63 88 92
1.403088 0.863050 3.503199 74 101 115
1.393504 0.812326 3.478189 79 108 122
1.192653 -0.306856 2.977301 106 127 129
1.225827 0.092694 3.056522 50 78 85
1.188686 -0.343343 2.964686 70 95 105
1.188686 -0.343343 2.964686 70 95 105
1.188618 -0.349286 2.959776 116 136 141
1.221637 0.048439 3.037070 48 70 76
1.408943 0.865157 3.504024 82 110 121
1.224179 0.008663 3.041984 72 91 98
1.399591 0.809767 3.476150 74 103 112
1.227327 0.014023 3.042498 60 79 86
1.224754 -0.013284 3.035924 99 118 123
1.227483 -0.001030 3.037145 58 82 88
1.418833 0.872159 3.506633 63 92 106
1.211181 -0.577880 3.000265 48 67 72
1.288464 0.122448 3.186478 83 100 103
1.326263 0.374282 3.272661 70 98 105
1.230525 0.062941 3.032887 48 67 72
1.343230 0.433991 3.310184 81 107 113
1.398846 0.750402 3.446054 86 117 126
1.231693 0.056472 3.030286 101 124 126
1.236803 0.067698 3.033537 101 120 123
1.198842 -0.364193 2.944292 52 76 82
1.349738 0.441600 3.311719 85 104 111
1.240619 0.018820 3.038661 114 133 136
1.240919 0.018675 3.039145 114 133 136
1.241657 0.078943 3.036664 52 68 74
1.354122 0.437511 3.306342 82 106 112
1.241155 0.060779 3.029248 46 64 71
1.244866 0.058004 3.037967 61 79 86
1.242905 0.036147 3.031826 118 140 146
1.251068 0.066653 3.037562 100 122 128
1.344073 0.381471 3.262396 93 116 124
1.252612 0.092680 3.037557 57 79 84
1.417535 0.744925 3.439296 133 161 168
1.349567 -0.924745 3.294480 39 55 62
1.208718 -0.377159 2.935152 39 57 64
1.440002 0.854951 3.491230 65 91 107
1.423523 0.755926 3.447628 84 114 125
1.254553 0.080957 3.035962 56 71 74
1.350364 -0.932893 3.289005 27 45 52
1.439810 0.841687 3.484771 136 158 164
1.442151 0.824435 3.476121 72 101 110
1.362936 0.428234 3.283660 119 145 157
1.358147 0.414734 3.268569 132 158 165
1.261178 0.050543 3.023292 58 83 93
1.265177 0.068347 3.031655 56 77 85
2.372089 2.366171 5.738771 44 63 68
2.372089 2.366171 5.738771 44 63 68
1.455261 0.843441 3.483826 71 100 109
1.355232 -1.006307 3.260731 60 80 85
1.383472 0.451593 3.304497 74 103 112
1.383472 0.451593 3.304497 74 103 112
1.162844 -0.139475 2.767565 57 83 90
1.466457 0.862283 3.496067 69 97 108
2.393933 2.554930 5.760099 99 120 122
1.343615 0.263380 3.198997 123 149 155
1.166663 -0.121991 2.769709 120 142 148
1.322185 0.184191 3.146499 88 110 116
1.169463 -0.141431 2.772480 100 122 128
1.273465 0.040610 3.022332 97 121 127
1.275749 0.071483 3.027045 129 154 158
1.274116 0.050527 3.021498 37 53 59
1.241394 -0.291282 2.941025 62 81 88
1.403860 0.473708 3.324074 134 158 164
1.279518 0.058016 3.022084 54 74 79
1.472883 0.836538 3.476862 73 98 114
1.472883 0.836538 3.476862 73 98 114
1.472883 0.836538 3.476862 73 98 114
1.233559 -0.353088 2.913015 45 64 71
1.233559 -0.353088 2.913015 45 64 71
1.182510 -0.140316 2.779207 36 49 57
1.244464 -0.006087 2.923210 90 117 127
1.289202 0.067312 3.022790 71 95 101
1.289202 0.067312 3.022790 71 95 101
1.486235 0.865127 3.487935 74 104 115
1.485899 0.845463 3.478113 122 148 154
1.486139 0.827270 3.468074 65 94 108
1.235736 -0.527086 2.887379 61 87 94
1.198566 -0.150475 2.787689 115 137 142
1.371874 0.247241 3.196316 76 108 119
1.482625 0.783071 3.447480 85 111 118
1.450088 0.624879 3.370027 84 110 116
1.320819 0.084409 3.063132 106 125 128
1.208896 -0.159168 2.791476 74 98 104
1.349626 0.171516 3.114942 79 98 105
1.349188 0.169787 3.113596 47 66 73
1.250711 -0.491854 2.884387 104 129 133
1.333590 0.076634 3.065272 121 141 146
1.257353 -0.468783 2.885217 71 90 103
1.257353 -0.468783 2.885217 71 90 103
1.338126 0.108965 3.057237 51 73 79
1.512835 0.810014 3.455991 56 86 97
1.386576 0.237291 3.165159 139 165 171
1.334177 0.049633 3.044455 122 141 144
1.362667 0.195846 3.105161 98 126 133
1.268377 -0.333446 2.890075 61 79 86
1.358062 0.174885 3.088319 155 177 183
1.340477 0.071162 3.045198 74 97 105
1.340477 0.071162 3.045198 74 97 105
1.349879 0.115313 3.056085 127 147 152
1.531640 0.840924 3.468121 56 85 99
1.535151 0.851372 3.472963 86 115 124
1.345435 0.054522 3.040302 53 75 81
1.267044 -0.321835 2.860608 102 124 130
1.270362 -0.504857 2.867404 115 138 146
1.538794 0.840916 3.466474 133 161 168
1.357901 0.109475 3.055711 65 84 92
1.275145 -0.374034 2.869601 117 139 145
2.533843 2.647272 5.748058 50 65 68
2.533843 2.647272 5.748058 50 65 68
1.280387 -0.463541 2.876559 74 93 100
1.542962 0.827860 3.458000 61 89 100
1.278423 -0.508895 2.861853 68 93 103
1.542656 0.800604 3.446684 74 104 115
1.300563 -0.429782 2.905436 66 85 90
1.509874 0.642865 3.368992 85 109 115
1.561045 0.869842 3.477086 82 111 118
1.290057 -0.544589 2.868126 51 70 78
1.288659 -0.523993 2.861762 45 63 70
1.534163 0.710260 3.401221 78 107 116
1.292360 -0.482482 2.866644 53 73 84
1.307579 -0.039431 2.883217 104 130 136
1.302046 -0.462024 2.876956 63 85 91
1.298688 -0.359503 2.866740 66 92 99
1.298688 -0.359503 2.866740 66 92 99
1.314771 -0.036314 2.886506 109 134 138
1.380213 0.100036 3.032232 121 143 148
1.296607 -0.292683 2.846394 81 107 114
1.571415 0.791837 3.436232 79 108 117
1.330859 -0.443038 2.893643 55 77 88
1.332998 -0.052792 2.881323 57 79 90
2.577651 1.920867 5.636430 58 80 85
1.418210 0.160582 3.051174 69 94 104
2.588924 1.926247 5.635346 62 82 87
1.469307 -0.922848 3.175474 33 56 64
1.394032 0.020417 2.997329 126 148 153
1.640148 0.931407 3.520913 127 150 158
1.638732 0.920598 3.510641 121 143 149
1.613707 0.839154 3.451433 135 149 155
1.642272 0.920697 3.506399 35 62 72
1.639042 0.913032 3.499655 124 143 150
1.625404 0.871807 3.466266 80 106 113
1.425727 0.182986 3.035852 59 88 97
1.609989 0.796510 3.430375 94 113 120
1.617960 0.835128 3.446097 97 120 128
1.617960 0.835128 3.446097 97 120 128
1.419865 0.127714 3.019371 91 116 126
1.404991 0.020020 2.982582 91 115 121
1.428560 0.152461 3.025927 84 109 119
1.403329 -0.001913 2.972421 62 83 91
1.630433 0.848621 3.452083 114 138 144
1.434974 0.159967 3.031883 135 156 158
1.625946 0.809016 3.434891 140 162 167
1.647227 0.895880 3.478972 111 135 141
1.643479 0.877554 3.470509 37 59 65
1.642866 0.869938 3.468835 30 59 66
1.642566 0.852222 3.462817 25 54 63
1.625867 0.790214 3.427595 134 163 168
1.501831 -0.952334 3.179675 63 84 92
1.647644 0.886470 3.469503 141 158 161
1.642553 0.831137 3.457450 21 44 52
1.612111 0.717904 3.390729 81 107 114
1.438247 0.043334 3.022370 82 104 110
1.365239 -0.270002 2.865720 109 128 133
1.439791 0.040142 3.019026 141 160 163
1.623566 0.754822 3.405397 126 150 156
1.643769 0.831128 3.446368 134 155 156
1.504890 -0.846121 3.169214 57 79 85
1.516932 0.269049 3.177958 83 110 120
1.624643 0.743753 3.403145 127 152 156
1.420132 -0.007104 2.970011 126 144 151
1.431267 0.014658 2.990443 64 90 96
1.331861 -0.115256 2.780041 117 136 143
1.572995 0.440596 3.292091 62 90 97
1.572995 0.440596 3.292091 62 90 97
1.469688 0.693051 3.067075 34 63 72
1.441303 0.030289 3.012881 123 143 148
1.511744 -0.929255 3.172055 48 71 79
1.619370 0.692792 3.375680 111 143 149
1.519804 0.255126 3.167406 92 115 123
1.550033 0.645837 3.224404 115 144 153
1.455571 0.160207 3.022596 126 145 152
1.517906 -0.845120 3.167539 53 72 79
1.636333 0.732792 3.395179 127 151 151
1.458364 0.153286 3.021477 56 77 85
1.466436 0.188844 3.036379 66 101 114
1.608210 0.601763 3.329618 117 154 162
1.590201 0.419022 3.286854 57 82 92
1.609095 0.588574 3.323050 129 155 161
1.605971 0.576965 3.310371 133 155 161
1.597644 0.462416 3.288957 113 136 144
1.471148 0.057242 3.023092 60 86 93
1.610792 0.566460 3.310450 131 155 161
1.462355 0.014891 3.003526 114 138 144
1.540251 0.253840 3.163178 59 84 94
1.599732 0.414211 3.285006 112 135 143
1.599618 0.414380 3.284320 112 135 143
1.607424 0.547608 3.298871 129 151 157
1.607186 0.480419 3.297665 103 126 134
1.603108 0.426448 3.286034 112 138 145
1.609585 0.523013 3.297929 104 132 139
1.605419 0.464873 3.289614 117 139 145
1.604754 0.437992 3.287402 119 143 149
1.603260 0.375900 3.281518 117 138 146
1.556248 0.256494 3.167950 56 83 93
1.556248 0.256494 3.167950 56 83 93
1.620463 0.507543 3.291858 132 157 161
1.404859 -0.231014 2.848125 69 91 97
1.564629 -0.988409 3.190748 78 92 98
1.565088 -1.004492 3.191741 79 93 99
1.564074 -0.701337 3.185067 63 74 78
1.551742 -0.896573 3.162151 55 73 80
1.495538 0.055152 3.029713 115 143 150
1.555030 -0.836226 3.167236 87 105 112
1.555727 -0.859704 3.165806 97 116 123
1.449314 -0.449926 2.940788 99 119 124
1.556526 -0.919204 3.163800 88 106 113
1.569548 -0.727131 3.186867 6 11 12
1.569548 -0.727131 3.186867 6 11 12
1.558761 -0.888620 3.162071 89 108 113
1.402782 -0.290512 2.828213 49 71 82
1.406302 -0.271741 2.830911 54 78 90
1.562927 -0.914836 3.163567 7 16 20
1.482835 -0.514406 2.991712 99 117 124
1.411065 -0.263101 2.834660 56 78 89
1.411065 -0.263101 2.834660 56 78 89
1.587288 0.268873 3.163370 114 135 143
1.585696 0.238958 3.159949 115 137 143
1.587243 0.251069 3.162629 120 139 146
1.584463 0.208069 3.155810 104 128 134
1.495606 -0.472657 2.961312 55 69 75
1.409339 -0.118278 2.774794 115 139 145
1.503387 -0.501611 2.960238 50 72 78
1.503387 -0.501611 2.960238 50 72 78
1.546559 -0.003491 3.040242 22 26 27
1.417279 -0.122274 2.775136 68 97 106
1.579566 0.117778 3.094030 28 49 57
1.667549 1.068705 3.244595 158 177 182
1.668467 1.063183 3.242153 103 127 133
1.668467 1.063183 3.242153 103 127 133
1.523649 -0.499549 2.969181 99 119 124
1.561265 -1.203874 3.032383 26 36 36
1.581675 -0.847227 3.067897 61 84 92
1.543549 -0.463905 2.980507 79 97 104
1.648098 0.352405 3.156528 101 130 134
1.579021 -0.004464 2.986076 136 151 154
1.704146 0.959544 3.196792 112 135 143
1.595193 -1.224400 3.010486 26 34 34
1.595564 -1.223012 3.010510 26 33 36
1.611273 -1.173126 3.025447 118 140 145
1.654348 -1.043988 2.991586 58 80 86
1.654052 -1.233502 2.979720 25 37 41
1.661471 -1.233233 2.983180 110 129 136
1.764423 0.586255 3.132945 86 115 120
1.671830 -1.233290 2.978098 110 126 132
1.793409 0.618693 3.133688 87 115 122
1.816983 0.834865 3.159736 84 110 117
1.701870 -1.224678 2.968324 121 137 143
1.846079 1.117297 3.189630 83 109 116
1.830185 0.836875 3.156721 77 114 122
1.711089 -1.230979 2.972569 120 131 135
1.802558 0.405868 3.106147 84 113 122
1.863277 1.112587 3.185908 81 100 107
1.863277 1.112587 3.185908 81 100 107
1.810121 0.389033 3.102659 60 89 98
1.832323 0.616478 3.127679 77 105 112
1.863194 1.032648 3.175766 77 105 112
1.685933 0.203375 2.857217 68 95 99
1.685933 0.203375 2.857217 68 95 99
1.872048 0.963991 3.165100 84 106 112
1.881874 1.068071 3.178743 76 104 111
1.847747 0.603914 3.122541 87 110 118
1.878491 0.895923 3.157274 74 103 112
1.850622 0.511341 3.110849 75 106 115
1.693547 0.061195 2.834462 90 112 118
1.685313 -0.088391 2.819080 90 110 115
1.685313 -0.088391 2.819080 90 110 115
1.891150 0.878731 3.152650 77 105 112
1.692799 -0.083913 2.819044 82 104 109
1.695055 -0.107167 2.816565 85 109 115
1.788958 -1.220923 2.958825 110 126 132
1.906366 0.711311 3.127848 76 108 119
1.905515 0.674810 3.123065 71 100 109
1.907163 0.669725 3.122211 137 161 167
1.907163 0.669725 3.122211 137 161 167
1.808680 -1.218354 2.956133 116 133 136
1.959488 0.885386 3.141868 81 107 114
1.959488 0.885386 3.141868 81 107 114
1.964801 0.904924 3.143599 138 158 163
1.955126 0.726926 3.123518 85 111 118
1.815431 0.269086 2.838186 74 107 116
1.990962 0.699203 3.114233 76 102 109
1.874614 -1.211811 2.948733 116 128 132
2.007555 0.788152 3.122928 86 112 118
2.056767 0.942767 3.135291 86 107 115
2.060905 0.968380 3.136967 79 107 114
2.060905 0.968380 3.136967 79 107 114
2.061749 0.890219 3.126118 83 107 113
2.056109 0.798924 3.116596 83 107 113
2.046408 0.543480 3.086583 76 108 119
1.890418 0.337950 2.831720 85 108 116
2.071193 0.636513 3.092962 85 111 118
2.062213 0.518711 3.080252 78 107 114
1.887725 0.114717 2.810926 102 125 133
1.900496 0.136700 2.808989 81 110 119
2.101558 0.760695 3.101814 73 103 114
2.104779 0.785140 3.105799 79 105 112
1.885646 -0.351182 2.763710 84 103 111
1.918136 0.098421 2.802862 83 111 118
1.941367 0.324209 2.823193 58 84 91
2.169001 1.114622 3.138634 70 91 99
2.169001 1.114622 3.138634 70 91 99
2.109006 0.401898 3.056813 76 102 109
1.937466 0.079708 2.797878 70 98 105
2.022606 -1.198941 2.931170 116 125 129
2.158075 0.707232 3.088519 74 98 104
2.178732 0.901656 3.109256 83 107 113
2.186667 0.909571 3.108281 82 104 110
2.186667 0.909571 3.108281 82 104 110
2.057007 -1.196359 2.928709 106 117 121
1.982260 -0.027936 2.780145 75 98 106
1.994434 0.064667 2.787595 79 106 116
2.214998 0.783404 3.086339 84 105 107
1.972695 -0.413209 2.747162 68 90 96
2.249124 1.005352 3.110966 62 84 90
1.985849 -0.348391 2.749129 77 103 110
2.247366 0.835681 3.090377 71 97 103
2.225639 0.567383 3.060527 74 103 112
2.271545 0.708085 3.069030 68 90 101
