ply
format ascii 1.0
element vertex 814
property float x
property float y
property float z
property uchar red
property uchar green
property uchar blue
end_header
-5.029737 -2.177220 5.422535 45 72 82
-4.801734 -1.807823 5.387252 105 124 131
-5.656153 -1.519335 6.401341 110 130 141
-4.470187 -2.339943 5.104118 47 66 73
-4.628478 -2.143141 5.360455 90 117 121
-4.713867 -1.858041 5.497753 96 119 127
-5.500818 -1.563294 6.705955 37 60 68
-4.512873 -2.192934 5.468410 96 119 127
-5.489195 -1.567737 6.699246 103 132 137
-5.466589 -1.568778 6.686072 34 63 67
-5.392253 -1.622974 6.619230 99 132 135
-5.376431 -1.632752 6.604322 104 135 144
-5.385610 -1.631092 6.622107 19 52 61
-3.015379 -0.413247 3.712285 152 169 182
-3.018726 -0.348921 3.738215 149 169 180
-3.010337 -0.329521 3.740980 150 171 186
-3.004926 -0.360858 3.737344 90 122 133
-3.005756 -0.316613 3.747712 152 171 186
-2.956080 -0.359661 3.722625 101 126 136
-2.956080 -0.359661 3.722625 101 126 136
-2.821053 -0.377297 3.721118 71 99 110
-2.821053 -0.377297 3.721118 71 99 110
-2.894348 -0.244869 3.829153 60 89 103
-2.817885 -0.385209 3.722798 47 76 90
-2.789709 -0.404453 3.716090 68 103 117
-2.803364 -0.327072 3.740017 83 111 118
-2.823004 -0.289622 3.779922 106 135 144
-2.807400 -0.301854 3.759201 169 187 194
-2.743993 -0.427237 3.686434 170 182 192
-2.791369 -0.329433 3.755735 90 121 130
-2.799876 -0.302799 3.770379 98 121 129
-2.797356 -0.309700 3.773964 140 163 171
-2.820402 -0.271254 3.809360 98 121 129
-2.792532 -0.297380 3.777714 97 122 132
-2.852487 -0.239879 3.863205 105 131 143
-2.736825 -0.520591 3.705898 82 113 122
-2.736825 -0.520591 3.705898 82 113 122
-2.769761 -0.345208 3.756978 148 167 180
-2.732878 -0.514221 3.720507 79 102 110
-2.723422 -0.535241 3.708352 95 127 140
-2.651616 -0.416173 3.648147 43 68 78
-2.819267 -0.217277 3.896132 110 136 148
-2.650277 -0.402841 3.678023 89 118 133
-2.624766 -0.426725 3.662080 158 176 183
-2.628767 -0.476992 3.670453 64 95 104
-2.819804 -0.169050 3.949824 139 158 163
-2.600487 -0.444660 3.642880 148 164 171
-2.776127 -0.216528 3.912738 104 133 142
-2.782463 -0.206008 3.923693 139 165 172
-2.659548 -0.308818 3.745619 119 139 150
-2.580819 -0.438930 3.649423 87 118 127
-2.580819 -0.438930 3.649423 87 118 127
-2.779311 -0.188681 3.962366 71 105 118
-2.779311 -0.188681 3.962366 71 105 118
-2.806502 -0.180705 4.013013 121 143 149
-2.770280 -0.192157 3.970407 150 172 184
-2.546259 -0.427183 3.661246 97 124 134
-2.554374 -0.485052 3.680010 66 97 106
-2.536981 -0.389067 3.698820 167 180 188
-2.483126 -0.435870 3.652187 145 164 171
-2.717887 -0.204203 4.053965 44 71 81
-2.669540 -0.224633 3.997215 104 124 135
-2.691042 -0.206598 4.070250 165 184 191
-2.709970 -0.183834 4.111655 60 88 99
-11.405551 -3.180840 18.019997 77 99 105
-2.639038 -0.216869 4.068238 50 76 92
-2.679622 -0.198751 4.148697 32 58 74
-2.621364 -0.210754 4.145378 123 150 160
-2.483819 -0.264335 3.923998 93 115 127
-2.469039 -0.275231 3.912189 104 128 140
-2.445509 -0.284857 3.904797 103 122 130
-2.445509 -0.284857 3.904797 103 122 130
-2.450322 -0.274882 3.914514 106 131 141
-2.437246 -0.287902 3.903530 103 123 134
-2.437246 -0.287902 3.903530 103 123 134
-2.438965 -0.284195 3.908848 148 169 177
-2.438965 -0.284195 3.908848 148 169 177
-2.416294 -0.296670 3.898218 88 110 121
-2.420246 -0.283846 3.910342 96 118 129
-2.420246 -0.283846 3.910342 96 118 129
-2.404721 -0.308154 3.893012 86 108 120
-2.593889 -0.154119 4.216547 62 96 109
-2.394380 -0.308892 3.895149 90 112 123
-2.394050 -0.297635 3.908318 95 116 124
-2.394050 -0.297635 3.908318 95 116 124
-2.379697 -0.299886 3.902510 93 119 126
-2.377456 -0.304918 3.903574 145 164 169
-2.361878 -0.303876 3.892091 88 111 126
-2.361503 -0.320477 3.898709 58 93 107
-2.349840 -0.323703 3.898353 84 113 122
-2.349840 -0.323703 3.898353 84 113 122
-2.343944 -0.307418 3.906786 91 119 130
-2.339462 -0.318832 3.902797 79 107 114
-2.326686 -0.335739 3.898085 64 99 109
-2.322807 -0.313742 3.908049 63 92 106
-2.971895 -2.407500 5.149251 135 151 157
-2.143755 0.014553 3.849712 99 128 135
-2.154265 -0.262065 3.878803 87 110 118
-2.123624 0.323908 3.826001 61 90 99
-2.899718 -2.419913 5.314891 123 144 146
-2.902881 -2.392410 5.318253 135 151 157
-2.138725 0.384126 3.881616 134 160 166
-2.870207 -2.388994 5.264335 125 145 150
-2.132724 -0.297571 3.876888 94 117 125
-2.128426 0.367658 3.876359 61 88 98
-2.060683 0.049284 3.809404 143 161 168
-2.100891 0.362766 3.897567 50 82 93
-2.071249 0.315984 3.846256 133 153 158
-2.046521 0.272187 3.807079 135 160 164
-2.062013 0.306721 3.839705 72 94 99
-2.035535 0.251137 3.790954 127 152 162
-2.035535 0.251137 3.790954 127 152 162
-2.070537 0.324465 3.858327 55 81 87
-2.037910 0.271826 3.813180 58 86 93
-2.064359 0.359473 3.893504 68 94 101
-2.027589 0.038637 3.821012 71 102 111
-2.016985 0.257809 3.803156 59 87 94
-1.991125 0.234590 3.775179 147 167 172
-1.989066 -0.373638 3.778106 130 149 154
-2.051313 0.377847 3.913296 69 91 96
-1.983227 -0.363439 3.775969 55 81 87
-1.983227 -0.363439 3.775969 55 81 87
-1.983315 0.236853 3.779919 72 101 110
-3.099055 -1.298296 5.997427 57 79 84
-1.967385 0.225544 3.769987 82 107 111
-1.982213 0.242023 3.801935 117 139 144
-2.042053 0.385240 3.928065 57 81 87
-2.033696 0.398118 3.941809 59 87 98
-1.942030 0.219904 3.758240 141 163 168
-1.949248 -0.363885 3.778004 144 163 170
-2.024064 0.407963 3.955369 47 76 85
-1.937726 -0.415461 3.788448 139 161 167
-1.926432 -0.396476 3.786874 67 95 102
-1.906619 -0.410142 3.778120 148 170 176
-1.969490 0.335393 3.939855 65 98 107
-1.797696 -0.213668 3.630683 162 181 186
-1.856115 -0.428310 3.761297 86 117 126
-1.858246 -0.430050 3.766003 88 117 126
-1.914740 0.324927 3.966608 61 93 104
-1.808186 -0.384539 3.740125 148 170 175
-1.879978 0.248872 3.906640 121 149 156
-1.799650 -0.397784 3.744598 64 97 106
-1.868186 0.349627 4.018657 61 88 98
-1.825810 0.244355 3.933353 72 107 120
-1.829184 0.258594 3.949590 52 89 103
-1.776071 0.239197 3.955823 50 79 86
-1.674703 -0.220853 3.753043 84 113 122
-1.794166 0.299521 4.032734 53 82 91
-1.645705 -0.345416 3.708103 69 98 105
-1.639654 -0.375949 3.724029 40 62 68
-2.608519 0.807332 6.073722 60 81 83
-1.756396 0.191024 4.070297 44 68 74
-1.615157 -0.368670 3.732227 59 90 99
-1.613019 -0.378107 3.727835 53 80 90
-2.578859 0.935697 6.105730 89 118 123
-1.555720 -0.374173 3.701213 43 69 76
-1.545794 -0.440388 3.719122 56 80 86
-1.545794 -0.440388 3.719122 56 80 86
-1.551158 -0.048702 3.775277 108 130 136
-1.551158 -0.048702 3.775277 108 130 136
-2.500478 0.494990 6.203984 30 49 52
-1.563090 0.089189 3.875014 68 95 105
-1.495652 -0.005852 3.795187 103 130 140
-1.495652 -0.005852 3.795187 103 130 140
-1.480654 -0.039298 3.773708 98 125 135
-2.368606 0.998636 6.211145 78 112 118
-2.349598 0.373538 6.236875 91 123 128
-2.271707 2.058392 6.063665 93 118 122
-2.320899 0.998860 6.197804 115 139 139
-2.325417 0.788601 6.220696 88 124 130
-2.311756 0.665710 6.233418 45 72 76
-2.297182 0.747877 6.197873 123 146 148
-1.369183 -0.293009 3.647563 116 135 142
-2.283880 0.795186 6.227707 66 96 97
-1.362093 -0.387259 3.659034 70 99 106
-1.348206 -0.185583 3.636208 151 170 173
-2.196729 2.305930 6.045635 36 56 61
-2.263766 0.791952 6.223262 60 90 95
-2.260078 0.757017 6.218784 64 95 98
-2.260078 0.757017 6.218784 64 95 98
-2.301493 0.870689 6.343129 110 142 148
-2.250242 0.769340 6.226268 115 145 150
-2.250242 0.769340 6.226268 115 145 150
-2.231291 1.389002 6.183489 105 134 138
-2.248430 0.749528 6.227945 108 139 142
-2.260846 0.827039 6.283977 102 131 136
-2.240426 0.726740 6.224949 101 131 136
-2.226460 1.034025 6.190563 127 148 150
-2.257876 0.849897 6.316763 113 139 145
-1.323609 -0.147312 3.637360 140 164 170
-1.310375 -0.310121 3.598829 108 136 143
-1.308770 -0.332471 3.598308 89 118 132
-1.322802 -0.083166 3.648885 149 173 179
-2.240277 0.829872 6.305559 52 83 86
-2.198053 1.078883 6.199097 114 136 141
-2.207814 1.033171 6.228021 44 70 76
-1.296521 -0.399109 3.594646 43 65 71
-1.289808 -0.322245 3.594197 160 184 190
-2.192995 1.197506 6.240441 93 124 127
-1.295512 -0.185010 3.620272 59 90 99
-2.170319 1.583597 6.206327 108 133 135
-1.286249 -0.134241 3.632321 44 67 75
-1.266769 -0.211675 3.603340 138 167 176
-1.277468 -0.178806 3.638536 120 146 152
-2.149898 1.170341 6.240084 114 143 147
-2.083091 2.467224 6.059232 97 122 126
-2.137717 1.115080 6.218431 106 136 141
-2.120029 1.412177 6.196086 124 146 151
-2.178407 1.681045 6.383098 104 136 142
-2.056575 2.477309 6.071380 112 131 134
-1.314355 0.137584 3.812521 136 164 171
-2.102105 1.401916 6.210595 31 57 63
-2.102105 1.401916 6.210595 31 57 63
-2.056620 2.470545 6.089784 34 56 61
-1.238212 -0.252334 3.602870 63 91 98
-1.248882 -0.102126 3.645567 65 93 100
-2.094408 1.426014 6.226487 41 65 71
-1.245829 -0.070530 3.654958 154 176 181
-2.113359 1.653356 6.333559 16 38 44
-2.054191 1.993138 6.205160 97 128 131
-2.049137 1.990848 6.190837 97 128 131
-2.044246 2.222360 6.185460 35 55 60
-1.209165 -0.233070 3.598299 140 164 170
-2.019444 2.343396 6.157449 34 53 60
-2.019444 2.343396 6.157449 34 53 60
-1.276444 0.132685 3.832359 156 180 186
-2.057784 1.621424 6.295497 42 67 71
-1.281764 0.154453 3.859765 155 180 184
-1.193526 -0.254119 3.585165 137 159 165
-2.047976 1.622029 6.299222 22 51 58
-1.991925 2.233723 6.178040 95 120 122
-1.997494 1.152504 6.188390 125 150 152
-2.026444 1.610071 6.289707 40 67 71
-2.017224 1.597218 6.279342 52 78 84
-1.215799 0.051492 3.713575 110 128 135
-1.172201 -0.411197 3.587276 51 73 79
-1.999624 1.452003 6.258932 104 137 146
-1.172235 -0.021641 3.626382 115 141 153
-1.154618 -0.045497 3.596287 116 139 147
-1.154618 -0.045497 3.596287 116 139 147
-1.141055 -0.243664 3.552340 87 113 119
-1.945233 1.877606 6.191990 52 84 89
-1.967081 1.476888 6.254571 101 135 141
-1.938072 0.789154 6.219986 127 156 161
-1.913148 1.973234 6.213127 83 115 120
-1.907443 1.861724 6.250864 40 66 72
-1.918085 0.849157 6.287639 71 100 107
-1.891624 2.003038 6.272375 26 55 62
-1.100476 0.098772 3.580338 79 105 111
-1.100476 0.098772 3.580338 79 105 111
-1.853747 1.558344 6.161953 122 145 147
-1.885324 0.810121 6.257463 127 156 160
-1.845568 2.352225 6.167552 95 124 128
-1.856140 1.881899 6.257184 93 129 135
-1.859437 1.883636 6.269943 92 128 134
-1.823110 2.361142 6.182975 91 120 125
-1.829320 1.154909 6.208711 104 138 144
-1.829835 0.759857 6.219645 76 106 111
-1.816675 2.290734 6.192437 33 62 67
-1.825540 1.135935 6.212109 89 121 126
-1.820897 1.155868 6.213528 53 85 91
-1.134112 0.247675 3.839823 85 114 123
-1.787297 2.371570 6.164533 29 51 56
-1.798976 1.116803 6.258868 41 72 81
-3.309340 3.288775 11.688538 35 67 73
-3.300412 3.313540 11.723541 38 72 78
-1.107210 0.244017 3.841955 66 98 109
-1.107210 0.244017 3.841955 66 98 109
-0.966057 0.131428 3.354764 104 130 137
-1.734342 1.156565 6.206244 74 106 112
-0.926429 -0.078129 3.265306 149 171 176
-1.712573 1.186116 6.196352 131 154 156
-0.928298 -0.057888 3.304484 67 99 110
-1.703031 1.564725 6.202615 102 134 139
-0.934398 -0.017446 3.332422 88 112 118
-0.895682 -0.095210 3.321712 64 100 108
-0.897886 -0.056311 3.343190 106 137 146
-0.888243 -0.057252 3.344834 114 143 148
-1.593460 1.509318 6.241687 53 87 93
-1.602129 2.066880 6.285907 84 113 118
-1.562735 1.882131 6.243688 77 113 119
-1.562735 1.882131 6.243688 77 113 119
-0.833586 -0.167555 3.266993 126 158 164
-0.777308 0.089807 3.166557 144 170 176
-0.797359 -0.014724 3.307003 96 118 123
-1.458635 1.983355 6.195893 105 130 134
-1.458635 1.983355 6.195893 105 130 134
-1.445438 2.354538 6.162046 41 70 75
-0.750723 -0.104965 3.248740 45 74 83
-0.745137 -0.120906 3.244228 81 110 117
-0.740377 -0.134963 3.235312 95 123 130
-0.740377 -0.134963 3.235312 95 123 130
-1.337315 2.403137 6.135303 35 63 70
-1.335683 2.391374 6.152641 46 79 88
-1.303473 2.382915 6.143960 118 140 145
-1.284983 2.360188 6.155861 106 134 135
-0.717620 0.387048 3.443442 63 95 106
-0.655339 -0.127540 3.154336 95 123 130
-0.683559 0.364599 3.426417 140 169 174
-0.635776 0.039400 3.207980 68 98 103
-0.636999 0.462481 3.434636 134 163 170
-0.639265 0.406006 3.466086 28 47 55
-0.567668 -0.209874 3.067140 102 121 128
-0.551355 -0.819335 3.032702 36 51 54
-0.608297 0.274394 3.396725 124 154 165
-0.605562 0.298208 3.428533 55 84 93
-0.953541 -2.752517 5.784896 102 123 125
-0.546796 0.091140 3.249377 81 116 126
-0.577729 0.310139 3.440241 50 79 93
-0.962238 2.429700 6.097000 33 64 73
-0.530477 0.144443 3.305732 81 119 131
-0.549456 0.279619 3.429873 54 89 102
-0.523694 0.185839 3.332103 78 114 124
-0.523023 0.234221 3.347428 145 177 188
-0.930148 2.431518 6.093404 25 57 63
-0.545566 0.547646 3.526084 146 173 177
-0.456334 -0.133919 2.974583 109 128 135
-0.397809 -0.237968 2.879179 109 128 135
-0.466470 0.360616 3.522881 86 120 126
-0.408078 0.028329 3.107887 108 130 136
-0.378202 -0.055081 2.998356 114 130 136
-0.493975 0.835522 4.051539 71 102 111
-0.649485 2.776502 5.859605 100 119 122
-0.410660 0.601378 3.650511 51 76 86
-0.454325 0.862530 4.097301 56 85 94
-0.335545 0.056517 3.091669 117 137 142
-0.372616 0.541895 3.668505 97 131 137
-0.383906 0.679530 3.796370 87 118 127
-0.279882 -0.175091 2.823732 104 123 128
-0.313021 0.197755 3.221158 84 114 125
-0.359806 0.607439 3.754940 40 62 73
-0.297732 0.200990 3.204654 96 122 129
-0.250698 -0.276938 2.742574 97 119 125
-0.328204 0.641557 3.815142 38 68 79
-0.223623 -0.302913 2.711162 109 128 133
-0.294596 0.529761 3.703060 110 142 148
-0.250502 0.103438 3.124776 104 126 132
-0.294051 0.651812 3.827202 98 132 138
-0.237527 0.146135 3.143390 97 119 125
-0.194271 -0.604406 2.847841 95 114 121
-0.179859 -0.303740 2.670069 98 120 126
-0.319629 0.926436 4.976062 39 74 78
-0.191403 -0.641434 2.836863 95 114 121
-0.149338 -0.662439 2.759648 111 131 136
-0.137318 -0.353623 2.629295 107 126 131
-0.135016 -0.347307 2.628780 87 111 117
-0.129432 -0.382662 2.617951 89 109 114
-0.102514 -0.150867 2.770870 106 125 130
-0.095713 -0.368491 2.594332 78 100 106
-0.091949 -0.111013 2.802340 99 118 125
-0.048245 -0.031011 2.795745 76 107 116
-0.040340 -0.270417 2.596223 77 95 102
-0.065964 2.392400 4.994941 32 52 57
-0.030081 -0.270934 2.593203 129 146 149
0.003270 0.186809 3.322848 41 74 83
0.010583 -0.385967 2.523580 56 68 72
0.023136 -0.342289 2.535003 62 83 85
0.023136 -0.342289 2.535003 62 83 85
0.050389 0.231186 3.355572 64 90 97
0.054164 -0.841714 2.712010 68 95 105
0.087835 0.782953 3.640213 101 129 140
0.087835 0.782953 3.640213 101 129 140
0.084879 0.469977 3.568363 60 89 103
0.060442 -0.378048 2.524807 103 124 126
0.058499 -1.005261 2.552674 139 161 166
0.070001 -0.162085 2.684620 73 96 104
0.077467 -0.426844 2.524670 101 122 124
0.079854 -0.384357 2.523962 33 52 57
0.094002 -0.894463 2.674486 84 115 124
0.092232 -0.406100 2.528100 42 62 67
0.152122 0.685130 3.554542 98 119 127
0.110733 -0.392581 2.531786 50 71 73
0.110733 -0.392581 2.531786 50 71 73
0.124635 -0.872199 2.694802 80 109 118
0.124635 -0.872199 2.694802 80 109 118
0.133642 -0.829088 2.732878 59 90 99
0.133642 -0.829088 2.732878 59 90 99
0.153147 -0.090322 2.753212 62 89 99
0.162214 -0.089388 2.752491 143 168 172
0.209388 0.688841 3.487422 100 119 124
0.178642 -0.019244 2.803682 134 158 164
0.225034 0.416454 3.456059 89 119 130
0.179947 -0.301225 2.577518 48 68 73
0.244094 0.706688 3.459155 104 128 134
0.246396 0.670320 3.457711 105 124 131
0.259029 0.594186 3.436852 109 138 143
0.259029 0.594186 3.436852 109 138 143
0.261400 0.588572 3.434038 83 115 120
0.264531 0.779494 3.452905 104 136 147
0.264531 0.779494 3.452905 104 136 147
0.205148 -0.263866 2.608349 50 74 80
0.221079 -0.769704 2.774317 121 150 155
0.219586 -0.817495 2.738164 58 85 95
0.234830 -0.835601 2.714880 71 94 102
0.242361 -0.773689 2.773333 55 84 98
0.240050 -0.817592 2.732808 69 92 100
0.240050 -0.817592 2.732808 69 92 100
0.307421 0.722133 3.402672 77 112 126
0.307421 0.722133 3.402672 77 112 126
0.297591 0.239906 3.235382 105 130 140
0.320927 0.791464 3.464236 142 172 177
0.251518 -0.818186 2.728508 65 91 98
0.254859 -0.833584 2.710388 72 96 102
0.254859 -0.833584 2.710388 72 96 102
0.307473 0.236725 3.229859 113 142 147
0.307473 0.236725 3.229859 113 142 147
0.171744 -0.830746 1.807443 30 39 43
0.318015 0.298761 3.257974 78 113 123
0.276192 -0.745120 2.788374 47 79 92
0.357848 0.749461 3.430618 65 105 117
0.357848 0.749461 3.430618 65 105 117
0.282429 -0.212431 2.670281 52 73 75
0.367738 0.750936 3.433491 111 145 151
0.299832 -0.720906 2.801264 36 60 72
0.299832 -0.720906 2.801264 36 60 72
0.279188 -0.926058 2.556329 95 117 128
0.382016 0.749253 3.458369 46 78 89
0.359061 0.248324 3.202739 82 112 123
0.388431 0.714883 3.423378 103 137 143
0.385654 0.545409 3.388324 82 108 114
0.385654 0.545409 3.388324 82 108 114
0.374581 0.294854 3.246908 87 119 130
0.420579 0.485061 3.588609 136 160 166
0.420579 0.485061 3.588609 136 160 166
0.369257 0.153418 3.148768 111 143 154
0.405743 0.743219 3.451787 109 145 153
0.408015 0.720241 3.439565 53 81 88
0.336291 -0.750767 2.770270 63 89 96
0.427925 0.790251 3.489015 119 155 161
0.427925 0.790251 3.489015 119 155 161
0.311682 -0.924911 2.536811 84 108 114
0.311682 -0.924911 2.536811 84 108 114
0.311682 -0.924911 2.536811 84 108 114
0.339231 -0.759654 2.761386 129 150 152
0.428544 0.693908 3.447668 49 76 86
0.431819 0.749979 3.464145 65 100 113
0.346602 -0.738572 2.780256 65 94 99
0.422179 0.572122 3.375551 100 129 138
0.355162 -0.179576 2.718021 58 82 88
0.457612 0.698861 3.450412 72 107 120
0.367016 -0.763167 2.744709 121 142 144
0.370714 -0.737821 2.772183 78 102 108
0.467602 0.736426 3.462458 65 100 113
0.374675 -0.761045 2.743121 76 98 104
0.365154 -0.951714 2.493604 139 161 166
0.365154 -0.951714 2.493604 139 161 166
0.461387 -0.632459 2.828772 82 112 123
0.533777 0.473020 3.211588 117 141 147
0.539247 0.461604 3.198436 104 130 142
0.486057 -0.606449 2.842144 65 95 106
0.489821 -1.666073 2.859138 17 25 25
0.489708 -0.649741 2.807379 72 107 117
0.509576 -0.594561 2.844744 66 96 107
0.509251 -0.604794 2.836727 63 97 110
0.517380 -0.600510 2.839065 59 91 104
0.519438 -1.531258 2.706662 13 32 37
0.544964 -0.583333 2.847800 72 102 113
0.648686 0.639357 3.371068 107 131 137
0.515138 -0.756343 2.656161 74 95 103
0.529857 -0.737078 2.675024 88 113 117
0.564346 -0.575697 2.846966 79 110 119
0.569683 -0.600158 2.823273 84 113 122
0.642280 0.151424 3.168880 57 86 100
0.642280 0.151424 3.168880 57 86 100
0.637032 0.094418 3.087164 76 111 121
0.642547 0.452228 3.064932 140 168 175
0.661552 0.154395 3.165795 52 79 93
0.596740 -0.559117 2.851290 83 116 125
0.596740 -0.559117 2.851290 83 116 125
0.647998 0.462301 3.067807 121 149 156
0.669262 0.157087 3.166424 49 81 94
0.669262 0.157087 3.166424 49 81 94
0.662067 0.440543 3.057802 130 159 164
0.671551 0.110442 3.100938 72 102 113
0.624258 -0.519831 2.871596 88 116 123
0.619133 -0.589771 2.813515 89 121 127
0.620955 -0.582295 2.821308 84 116 122
0.675470 0.098131 3.052327 120 148 155
0.682108 0.365178 3.039104 131 160 165
0.643158 -0.529474 2.860439 84 114 125
0.653118 -0.463690 2.902693 50 85 95
0.704988 0.507809 3.108782 155 175 180
0.690089 0.367007 3.037888 59 90 99
0.650718 -0.524229 2.861661 88 116 123
0.699211 0.384928 3.038008 60 90 101
0.609383 -0.732952 2.632635 123 145 150
0.704087 0.342829 3.040035 56 81 91
0.742497 0.179163 3.156454 71 100 114
0.719586 0.437940 3.045542 149 175 181
0.726119 0.482119 3.059729 148 173 177
0.727485 0.437182 3.043399 77 106 115
0.675103 -0.591899 2.780852 89 120 129
0.675103 -0.591899 2.780852 89 120 129
0.766614 0.187006 3.163118 58 83 93
0.657705 -0.661879 2.688328 118 146 153
0.674588 -0.640839 2.705863 74 103 112
0.674588 -0.640839 2.705863 74 103 112
0.715356 -0.546512 2.817861 85 116 125
0.715494 -0.554530 2.807297 97 125 132
0.722158 -0.546282 2.812207 92 121 130
0.737880 -0.525799 2.821580 72 97 107
0.733238 -0.545646 2.801727 82 111 118
0.761922 -0.485968 2.836971 127 155 162
0.763724 -0.509377 2.822834 135 157 163
0.771584 -0.450477 2.852137 82 110 117
0.778984 -0.427407 2.869392 132 160 167
0.772560 -0.465138 2.846439 92 121 128
0.782860 -0.451421 2.843738 132 158 164
0.765071 -0.752147 2.738136 115 141 148
0.831910 -0.370692 2.879971 99 125 131
0.466260 0.180083 1.561445 28 37 40
0.864388 -0.269705 2.934876 114 143 148
0.854015 -0.339609 2.896786 44 72 79
0.859780 -0.340513 2.899585 101 128 132
0.800472 -0.706970 2.664152 62 93 102
0.906798 -0.225263 2.986419 109 138 143
0.926103 -0.135715 3.027628 56 88 99
1.017509 -0.019213 3.233265 98 128 133
0.880903 -0.362682 2.742414 79 113 119
0.897250 -0.636998 2.789775 59 88 92
0.930203 -0.576447 2.882224 117 143 149
0.894840 -0.333457 2.761203 83 113 124
0.890952 -0.378814 2.733091 81 112 121
0.908740 -0.379430 2.740977 62 91 100
0.916467 -0.400186 2.729942 134 159 161
0.922453 -0.402554 2.725684 129 155 161
0.987981 -0.549648 2.773269 61 90 105
0.993799 -0.378865 2.751065 114 143 148
1.028987 -0.485037 2.804701 98 118 123
1.017497 -0.564529 2.721893 121 147 153
1.032538 -0.364334 2.742951 131 155 161
1.043125 -0.323830 2.769916 123 154 163
1.035133 -0.353299 2.746287 122 151 156
1.043358 -0.328449 2.766142 122 156 162
1.030852 -0.549246 2.731996 110 131 133
1.031788 -0.565461 2.733197 40 59 67
1.044198 -0.555821 2.740871 23 36 44
1.102206 -0.232787 2.852858 100 122 128
1.098289 -0.404033 2.815103 56 72 78
1.116328 -0.191567 2.859751 121 140 147
1.105283 -0.273591 2.830954 135 159 165
1.081989 -0.545742 2.770105 50 71 73
1.081989 -0.545742 2.770105 50 71 73
1.089082 -0.342216 2.776494 116 140 146
1.118852 -0.446378 2.850141 89 111 117
1.107046 -0.277727 2.821288 130 157 161
1.106114 -0.428561 2.813429 89 111 116
1.096309 -0.540508 2.780652 105 129 135
1.099434 -0.478649 2.784306 104 129 133
1.120597 -0.445776 2.820223 95 119 125
1.120169 -0.315174 2.812655 38 57 62
1.122269 -0.370949 2.795977 33 50 53
1.135081 -0.225247 2.774355 136 156 161
1.154152 -0.306007 2.807981 72 95 103
1.154152 -0.306007 2.807981 72 95 103
1.226356 -0.054651 2.978696 84 108 114
1.226356 -0.054651 2.978696 84 108 114
1.139803 -0.513830 2.737373 54 80 94
1.142615 -0.509050 2.741877 107 129 135
1.145164 -0.518207 2.739772 94 118 124
1.152870 -0.533515 2.742454 42 61 68
1.160923 -0.178759 2.749760 145 167 172
1.248264 -0.063653 2.948286 87 113 120
1.183411 -0.262109 2.786571 61 80 85
1.183411 -0.262109 2.786571 61 80 85
1.296831 0.242072 3.058543 77 107 118
1.164491 -0.545863 2.729330 39 64 68
1.192844 -0.118738 2.788648 33 60 70
1.202197 -0.111953 2.797463 105 127 132
1.224996 -0.102975 2.840773 54 77 85
1.202034 -0.246440 2.770704 73 86 88
1.200943 -0.269227 2.764010 89 108 111
1.181082 -0.565251 2.715124 33 52 59
1.190424 -0.291094 2.730979 105 124 131
1.207643 -0.255080 2.771226 119 135 141
1.208412 -0.219921 2.769932 68 90 96
1.183692 -0.560645 2.712818 116 139 141
1.207760 -0.261174 2.759360 140 155 158
1.211422 -0.229080 2.767010 63 84 92
1.252749 -0.108957 2.857454 65 89 95
1.312288 0.196653 2.995187 81 104 112
1.278932 -0.073872 2.914987 125 145 150
1.275896 -0.093007 2.902806 88 103 105
1.218021 -0.157389 2.754980 116 137 139
1.218766 -0.148807 2.755899 82 104 110
1.217627 -0.180986 2.753205 104 124 129
1.222220 -0.170545 2.753678 101 121 126
1.226395 -0.160004 2.752955 51 67 73
1.225687 -0.177349 2.750912 50 69 74
1.230915 -0.189421 2.754470 67 96 101
1.239254 -0.143969 2.756596 128 150 155
1.238085 -0.147927 2.754347 60 79 86
1.339855 0.206941 2.984671 90 109 116
1.211477 -0.563060 2.688671 63 86 94
1.211477 -0.563060 2.688671 63 86 94
1.241934 -0.161018 2.755176 76 95 102
1.345877 0.214092 2.983492 84 103 110
1.292316 -0.101343 2.859660 121 138 141
1.245206 -0.186592 2.746565 59 85 92
1.145110 -0.379889 2.513105 121 143 149
1.331741 0.140528 2.942837 136 162 168
1.400284 0.583921 3.098643 76 107 122
1.292918 -0.105743 2.853549 55 74 81
1.274886 -0.178384 2.811767 95 120 124
1.249945 -0.169635 2.752820 57 79 85
1.409982 0.635304 3.113621 73 99 115
1.417432 0.657976 3.128592 96 120 126
1.417432 0.657976 3.128592 96 120 126
1.292831 -0.097765 2.842792 69 86 89
1.330567 0.065570 2.927765 130 154 160
1.404691 0.580653 3.093475 69 96 106
1.255473 -0.160173 2.750292 52 71 76
1.223632 -0.668643 2.674047 66 89 97
1.260071 -0.167453 2.747267 134 159 163
1.311000 -0.046075 2.854867 93 118 122
1.264910 -0.160475 2.747656 80 108 115
1.291006 -0.140208 2.802691 36 55 60
1.226049 -0.253612 2.653400 84 113 120
1.334621 0.033980 2.896373 124 150 156
1.236762 -0.238584 2.664363 132 156 162
1.338565 0.023885 2.891810 137 159 164
1.273650 -0.171408 2.744343 74 98 104
1.218198 -0.285074 2.618370 74 105 114
1.240049 -0.535375 2.669117 61 78 87
1.377760 0.222145 2.970628 73 102 111
1.243794 -0.542980 2.665140 64 87 95
1.307022 -0.104208 2.804151 142 161 168
1.247991 -0.645483 2.673227 69 88 96
1.446530 0.613045 3.099811 129 155 161
1.344378 0.007383 2.873858 154 174 179
1.244580 -0.571870 2.652392 117 135 142
1.352807 0.019338 2.890226 123 149 156
1.401226 0.246875 2.993729 137 161 167
1.448237 0.595458 3.093394 78 105 115
1.353454 0.008824 2.878322 76 112 120
1.332478 -0.066972 2.828604 71 90 97
1.360270 0.013966 2.883819 142 167 171
1.252370 -0.269551 2.639370 136 158 164
1.461193 0.614486 3.096742 67 94 104
1.336822 -0.062087 2.821647 84 103 108
1.336822 -0.062087 2.821647 84 103 108
1.251817 -0.520211 2.637137 127 146 153
1.268148 -0.643232 2.672313 63 84 92
1.366122 0.014411 2.883859 126 152 158
1.317239 -0.181562 2.770871 118 139 141
1.471127 0.634138 3.104705 69 98 112
1.323344 -0.127812 2.774999 64 87 95
1.324526 -0.162797 2.769915 78 100 106
1.268315 -0.560003 2.649796 63 90 100
1.268315 -0.560003 2.649796 63 90 100
1.477119 0.603426 3.091459 51 80 95
1.350457 -0.042841 2.812031 97 120 128
1.375734 0.005891 2.864473 135 162 166
1.333970 -0.122430 2.773048 129 148 151
1.332156 -0.159379 2.765938 79 101 107
1.335768 -0.222437 2.773136 65 91 97
1.450969 0.392765 3.017919 86 110 116
1.297344 -0.624774 2.689287 59 80 88
1.266932 -0.507104 2.618212 79 105 112
1.260669 -0.306110 2.599690 51 79 86
1.260669 -0.306110 2.599690 51 79 86
1.494199 0.636618 3.100909 69 101 112
1.493267 0.616602 3.094592 123 149 156
1.347738 -0.212225 2.779706 130 149 154
1.493389 0.597971 3.087694 71 97 113
1.233288 -0.338729 2.526719 141 160 167
1.488482 0.553230 3.073568 83 106 114
1.488482 0.553230 3.073568 83 106 114
1.343959 -0.223671 2.761307 76 96 101
1.270578 -0.311861 2.598515 65 94 103
1.270578 -0.311861 2.598515 65 94 103
1.274785 -0.303753 2.606424 123 148 152
1.365145 -0.109932 2.762357 60 81 89
1.295159 -0.525432 2.615001 113 133 138
1.519192 0.580322 3.078092 59 87 98
1.293280 -0.310853 2.598780 83 112 119
1.529668 0.597008 3.082922 86 110 122
1.377319 -0.203180 2.764310 124 147 149
1.311097 -0.298761 2.623375 57 81 93
1.312833 -0.304241 2.616307 118 145 149
1.325321 -0.277947 2.637193 114 140 146
1.542359 0.622125 3.088394 81 111 122
1.511695 0.410647 3.016735 84 106 112
1.511695 0.410647 3.016735 84 106 112
1.511695 0.410647 3.016735 84 106 112
1.382157 -0.203684 2.748638 72 95 103
1.546490 0.611629 3.085215 132 156 162
1.314509 -0.313074 2.595612 103 129 136
1.337060 -0.262431 2.638449 25 51 58
1.340546 -0.287628 2.642014 87 113 120
1.538274 0.479059 3.040055 82 111 120
1.464274 0.012540 2.887848 99 120 128
1.281006 -0.400890 2.508119 54 76 82
1.385428 -0.216664 2.717064 89 115 121
1.385201 -0.237713 2.714398 50 73 81
1.515342 -1.229430 2.975198 96 122 129
1.403016 -0.099970 2.743283 82 108 115
1.403016 -0.099970 2.743283 82 108 115
1.847189 -0.714295 3.642263 54 73 81
1.403451 -0.116703 2.737723 96 122 129
1.304300 -0.368336 2.526804 116 140 146
1.398616 -0.241655 2.707600 128 148 153
1.420838 -0.191738 2.751873 141 157 163
1.420228 -0.086000 2.746837 133 153 158
1.578209 0.561678 3.064502 82 110 121
1.432753 -0.035580 2.762033 128 154 161
1.517937 0.054738 2.911664 79 106 116
1.510998 0.047252 2.895625 86 108 119
1.510998 0.047252 2.895625 86 108 119
1.515418 0.051259 2.902624 132 155 163
1.506348 0.039586 2.882258 81 105 117
1.506348 0.039586 2.882258 81 105 117
1.440731 -0.058886 2.744175 71 90 98
1.440096 -0.087055 2.738340 125 145 150
1.505767 0.005734 2.869000 136 154 161
1.505942 -0.003308 2.866454 46 68 79
1.360331 -0.316334 2.576083 89 115 122
1.655024 0.746630 3.156877 38 70 81
1.443864 -0.093145 2.740027 66 87 95
1.451461 -0.059372 2.748060 59 97 109
1.380413 -0.482202 2.609937 51 74 82
1.380413 -0.482202 2.609937 51 74 82
1.568743 0.215897 2.973588 65 90 100
1.515921 0.003236 2.867887 122 142 147
1.451586 -0.083349 2.736724 66 93 103
1.617757 0.566105 3.060207 92 111 118
1.519647 0.017223 2.867712 70 93 101
1.574356 0.214028 2.972131 69 96 106
1.520226 -0.003137 2.865190 45 67 73
1.528710 0.023979 2.870246 68 89 97
1.585632 0.196274 2.972311 65 89 101
1.585632 0.196274 2.972311 65 89 101
1.616680 0.486196 3.031056 83 105 111
1.653355 0.678471 3.099509 49 75 82
1.631740 0.559736 3.056051 132 161 166
1.652420 0.624954 3.084915 24 52 59
1.658507 0.668384 3.093777 114 138 144
1.544792 0.027745 2.875237 56 83 93
1.544792 0.027745 2.875237 56 83 93
1.365362 -0.370124 2.522015 42 64 70
1.624473 0.460940 3.022833 110 141 150
1.623980 0.454864 3.021102 107 139 150
1.656757 0.657057 3.083321 131 151 152
1.599772 0.203202 2.973301 121 141 152
1.652753 0.602170 3.072223 132 152 153
1.611007 0.369034 2.991354 115 148 157
1.805991 0.295536 3.358627 101 124 132
1.606826 0.253981 2.978588 97 122 132
1.583094 0.090898 2.932835 142 161 168
1.602412 0.238051 2.969314 117 138 146
1.376796 -0.380121 2.525782 121 143 148
1.640338 0.501060 3.032377 130 153 155
1.611701 0.333299 2.975780 139 158 165
1.609171 0.314194 2.970576 124 143 150
1.607605 0.291539 2.967316 105 131 138
1.388664 -0.354913 2.538763 44 66 77
2.286923 0.313428 4.236873 122 147 149
1.388898 -0.373307 2.529212 73 102 111
1.588490 0.073345 2.905923 34 52 59
1.568408 -0.035298 2.866381 75 95 100
1.571710 -0.016206 2.872331 100 120 125
1.597940 0.084124 2.914520 137 151 150
1.574908 0.011835 2.872570 116 135 142
1.586022 -0.015624 2.878233 103 120 123
1.596888 0.069264 2.896231 139 157 158
1.593428 0.082557 2.888999 102 121 126
1.560222 -0.106735 2.817904 26 49 57
1.567860 -0.107996 2.821634 110 130 131
1.550470 -0.318470 2.759581 99 120 122
1.606057 0.023618 2.697267 164 176 176
1.693288 0.118475 2.801873 147 166 169
1.714586 0.129274 2.811918 144 164 165
1.717958 0.664869 2.804249 109 132 140
1.716474 0.118572 2.804298 153 171 170
1.696812 0.094612 2.729580 84 111 115
1.804363 0.139352 2.803602 58 87 96
1.828505 0.548896 2.792460 82 108 114
1.849771 0.250614 2.794894 83 112 119
1.887489 0.808533 2.778565 79 101 107
1.887489 0.808533 2.778565 79 101 107
1.907159 0.590296 2.783889 79 108 113
1.913078 0.401066 2.786256 82 109 119
1.915409 0.434782 2.785853 72 104 115
2.051374 0.281559 2.778565 78 109 118
1.922688 -0.610316 2.573419 71 96 100
1.955438 -0.695589 2.574594 84 109 119
2.107684 0.151573 2.774331 72 96 102
1.952638 -0.278328 2.552504 80 102 108
2.078394 -0.778462 2.569888 119 131 137
2.119196 -0.582006 2.553541 50 63 71
2.173827 -0.614621 2.550515 55 72 81
2.351898 0.174691 2.756118 101 114 122
2.188096 -0.622409 2.546715 12 17 16
2.366720 0.190078 2.752655 97 99 109
2.369735 0.219899 2.751663 90 102 106
2.381244 0.283985 2.747880 92 103 111
2.385428 0.307023 2.746759 99 113 119
2.386900 0.296616 2.743969 19 24 27
2.394207 0.347589 2.745668 88 102 108
2.389743 0.326302 2.738902 18 23 24
2.396649 0.368145 2.744110 69 78 82
2.400804 0.388314 2.743849 76 89 97
2.410180 0.447733 2.743680 87 103 109
2.410257 0.447801 2.743553 83 97 103
2.235219 -0.358043 2.531136 88 97 101
2.233870 -0.343639 2.526768 83 95 101
2.419784 0.493980 2.740426 85 103 110
2.420837 0.505840 2.738389 89 101 107
2.423496 0.532473 2.736845 81 95 101
2.432195 0.561880 2.736924 74 86 90
2.436203 0.588628 2.736580 87 101 107
2.441885 0.623587 2.734724 90 102 106
2.444255 0.635645 2.735141 78 90 96
2.263364 -0.156848 2.518965 45 62 71
