ply
format ascii 1.0
element vertex 1117
property float x
property float y
property float z
property uchar red
property uchar green
property uchar blue
end_header
-6.410910 -2.418580 6.977364 87 109 115
-6.510802 -2.324477 7.130490 39 62 70
-6.471636 -2.137205 7.116400 99 125 132
-6.478563 -2.318220 7.174898 90 108 115
-6.453894 -2.309125 7.189060 62 86 92
-6.526040 -1.804883 7.292351 58 85 95
-6.519168 -1.810523 7.292243 48 71 79
-5.414612 -2.991041 6.140082 73 93 98
-6.500519 -2.211774 7.396905 101 123 129
-6.483078 -2.219564 7.400851 50 76 83
-6.483078 -2.219564 7.400851 50 76 83
-4.530988 -1.609360 5.171776 54 78 84
-4.530988 -1.609360 5.171776 54 78 84
-6.338966 -2.268851 7.312823 48 74 81
-6.434129 -2.274933 7.490131 50 76 83
-6.428312 -2.241922 7.514774 96 125 130
-6.425040 -2.237609 7.526664 37 63 75
-9.972857 -0.896844 11.968478 105 130 140
-9.972857 -0.896844 11.968478 105 130 140
-7.054124 -1.084567 8.421992 133 152 160
-9.975159 -0.890154 12.004239 104 122 129
-10.159708 -0.700854 12.253784 12 34 40
-5.974881 -1.756062 7.169552 115 137 142
-9.981062 -0.850175 12.095574 107 129 135
-5.966181 -1.754091 7.176373 43 72 77
-5.994182 -2.183662 7.350188 32 55 63
-5.901204 -2.603739 7.245569 128 147 154
-5.893225 -2.593893 7.245497 56 86 97
-5.874684 -2.235608 7.305483 44 67 75
-5.874684 -2.235608 7.305483 44 67 75
-6.932313 -1.010214 8.646097 100 129 138
-7.044592 -0.978465 8.798025 32 61 70
-5.989414 -2.672693 7.541997 51 80 89
-5.881632 -2.197812 7.402950 103 125 130
-5.876615 -2.459876 7.409108 66 89 97
-5.777626 -2.547757 7.286453 53 76 84
-6.802445 -1.154315 8.594721 89 118 127
-6.854099 -1.149649 8.672780 57 84 94
-6.854099 -1.149649 8.672780 57 84 94
-6.852137 -1.133882 8.676823 103 129 135
-6.854015 -1.144735 8.701662 36 60 66
-5.739082 -2.336725 7.306896 80 102 108
-6.764574 -1.245208 8.654772 103 130 140
-6.760242 -1.235342 8.654774 29 57 64
-3.376780 -0.408121 4.254721 154 171 180
-5.724401 -2.469878 7.362454 46 65 72
-3.372628 -0.441137 4.262391 93 122 131
-9.875390 -0.648828 12.812115 92 111 118
-3.350954 -0.362639 4.278712 110 136 148
-5.701322 -2.523484 7.418201 51 79 86
-5.593148 -2.573951 7.282735 112 131 136
-3.319779 -0.444059 4.250083 107 133 140
-5.767181 -2.240224 7.595706 100 124 130
-5.767181 -2.240224 7.595706 100 124 130
-3.276598 -0.291358 4.291857 162 177 186
-5.525105 -2.492463 7.413688 68 90 96
-5.528157 -2.523289 7.427498 43 73 84
-5.511642 -2.519694 7.453299 38 66 77
-3.245697 -0.300976 4.323311 61 92 101
-3.176947 -0.472012 4.275392 45 74 89
-3.176155 -0.471787 4.274560 45 74 89
-3.164157 -0.411358 4.271543 152 171 176
-3.225892 -0.710728 4.371206 62 93 102
-3.175240 -0.358960 4.296670 105 135 146
-3.175240 -0.358960 4.296670 105 135 146
-3.192242 -0.332070 4.327555 113 135 147
-3.150950 -0.494077 4.281605 62 99 113
-3.179782 -0.334481 4.333985 93 117 129
-3.152522 -0.407621 4.301579 88 119 128
-3.147857 -0.381819 4.300719 142 163 171
-3.166845 -0.342615 4.331099 84 115 130
-3.148632 -0.368497 4.307723 98 124 136
-3.227052 -0.196980 4.418984 94 117 125
-3.105274 -0.528043 4.271776 164 177 185
-9.866484 -0.308454 13.966343 119 138 143
-9.866484 -0.308454 13.966343 119 138 143
-3.124314 -0.454852 4.308358 91 123 136
-3.124314 -0.454852 4.308358 91 123 136
-3.159860 -0.326368 4.382437 159 178 186
-10.215903 3.467119 14.659222 95 124 129
-3.188729 -0.196529 4.465219 131 148 157
-2.999893 -0.522485 4.219869 46 71 81
-2.999309 -0.502366 4.250385 93 120 134
-3.146796 -0.214756 4.492837 72 104 115
-2.975051 -0.530646 4.245534 157 179 185
-3.140818 -0.222540 4.495165 77 108 123
-3.165919 -0.194767 4.533549 136 155 162
-3.149445 -0.202886 4.513935 73 101 112
-3.136280 -0.216449 4.502837 149 166 175
-2.949242 -0.555685 4.236393 149 165 171
-3.143793 -0.191898 4.539018 164 177 185
-2.923624 -0.546968 4.235942 85 118 127
-2.940655 -0.466123 4.272003 100 129 138
-3.090232 -0.231689 4.523733 99 120 128
-3.088960 -0.225946 4.540778 134 157 165
-2.890687 -0.532651 4.253740 98 125 135
-3.062696 -0.241071 4.535109 80 105 115
-3.058368 -0.237469 4.550141 84 111 121
-2.876955 -0.483461 4.277701 162 178 185
-3.105061 -0.211518 4.640790 42 67 77
-8.939618 0.010099 13.776956 98 111 119
-8.939618 0.010099 13.776956 98 111 119
-3.110169 -0.163841 4.691233 49 74 84
-3.554765 -3.147782 5.414044 73 99 106
-2.820120 -0.543688 4.248536 145 164 171
-9.482931 3.515411 14.697912 18 37 44
-3.503736 -3.092111 5.342061 65 92 102
-9.119725 0.017511 14.159753 99 111 117
-3.063703 -0.209202 4.644126 150 171 179
-9.448757 3.395913 14.739339 42 71 80
-3.017726 -0.222664 4.671521 55 84 98
-3.068291 -0.183097 4.752939 30 57 71
-2.988660 -0.235159 4.699401 52 88 104
-2.820654 -0.317584 4.507644 101 124 139
-3.644576 -3.091649 5.935132 141 159 166
-2.800500 -0.317183 4.513540 100 126 138
-2.794551 -0.329578 4.504790 101 125 131
-2.969296 -0.196893 4.798259 68 100 111
-3.008034 -0.184745 4.867857 42 67 77
-2.785956 -0.333148 4.505688 105 125 136
-2.988472 -0.119897 4.842569 66 98 111
-2.786629 -0.327714 4.508022 152 171 179
-2.786629 -0.327714 4.508022 152 171 179
-2.764489 -0.343307 4.505281 93 115 126
-2.768120 -0.327303 4.514443 96 118 130
-3.710039 -2.998351 6.134231 51 75 81
-2.751920 -0.356966 4.505822 86 110 122
-2.751920 -0.356966 4.505822 86 110 122
-2.741428 -0.357421 4.510914 87 112 122
-2.738815 -0.342630 4.519892 101 120 128
-8.619229 4.190672 14.611069 37 68 77
-2.710919 -0.353228 4.516181 93 115 126
-2.704896 -0.368500 4.520251 63 96 111
-2.693300 -0.372057 4.523790 82 110 121
-2.686640 -0.353084 4.528562 94 122 129
-8.507725 4.189660 14.723500 33 61 68
-8.507725 4.189660 14.723500 33 61 68
-2.681027 -0.365922 4.526980 78 103 113
-2.663857 -0.359806 4.535644 63 92 107
-8.412674 2.832483 14.877883 120 139 144
-3.754919 -2.839224 6.580017 47 71 77
-3.754919 -2.839224 6.580017 47 71 77
-3.035088 -3.229781 5.361203 159 171 175
-2.347033 0.278304 4.214482 135 155 160
-2.348868 0.290110 4.230257 49 75 81
-2.337587 0.267385 4.212756 62 87 91
-3.804057 -2.694564 7.009832 53 75 81
-2.321335 0.224533 4.190522 136 158 164
-2.327194 0.258952 4.209655 62 91 98
-2.309741 0.199072 4.184341 128 153 163
-2.309741 0.199072 4.184341 128 153 163
-2.309832 0.225599 4.194261 59 88 97
-2.346007 0.334837 4.264371 57 84 94
-2.288034 0.209158 4.190998 61 87 93
-2.334255 0.358930 4.286193 64 88 94
-3.803561 -2.622430 7.143947 68 95 99
-2.276607 0.203790 4.193517 103 132 137
-2.320363 -0.056284 4.295158 147 163 170
-2.326817 0.370729 4.305203 60 84 90
-2.324892 0.379949 4.303570 50 75 79
-3.791698 -2.622075 7.169069 72 101 115
-2.251656 0.182478 4.176385 70 98 105
-2.322054 0.401229 4.325356 138 162 168
-2.318443 0.387438 4.318579 53 81 92
-2.251021 0.193103 4.199938 116 142 148
-2.231979 0.168640 4.165632 79 104 108
-7.729861 1.670823 15.079041 49 80 89
-7.567588 1.593207 14.932145 106 127 129
-7.548537 2.210978 15.034167 73 110 118
-3.335040 -2.835339 6.563695 60 88 95
-2.251265 0.324091 4.347725 62 93 102
-2.259858 0.405881 4.379542 56 86 97
-2.259858 0.405881 4.379542 56 86 97
-7.509879 2.115957 15.025171 42 68 74
-7.435266 1.755486 14.885315 107 129 135
-7.382024 1.608129 15.089264 33 65 71
-2.194070 0.321121 4.390931 58 90 103
-2.151764 0.228031 4.345813 118 147 154
-3.558528 -2.380225 7.408697 38 66 73
-3.540975 -2.377951 7.383003 112 141 148
-3.535202 -2.386441 7.378706 105 130 134
-3.548273 -2.384843 7.442873 58 80 86
-2.135069 0.258688 4.391106 59 94 107
-3.502811 -2.413571 7.362751 122 147 151
-3.483164 -2.489125 7.363703 90 119 126
-2.150318 0.361360 4.459065 66 92 98
-2.097684 0.231341 4.391774 67 102 112
-2.100218 0.249843 4.402375 54 89 102
-3.406399 -2.540446 7.316564 123 148 152
-3.672138 0.945375 7.867039 88 119 122
-2.083183 -0.472592 4.401675 151 170 175
-3.379160 -2.551948 7.298409 132 157 161
-3.386282 -2.545545 7.317359 38 72 78
-3.371812 -2.558910 7.312479 67 95 102
-3.405399 -2.508879 7.452139 118 140 145
-3.204740 1.443426 6.995984 57 78 80
-3.182290 1.505285 6.969208 52 77 81
-2.046759 0.232758 4.433382 48 78 89
-2.039312 0.220600 4.430177 117 141 147
-2.071089 0.314674 4.504070 48 80 86
-3.052130 2.059423 6.874109 84 111 115
-2.936142 2.019004 6.619582 86 115 120
-2.613053 1.906347 5.910388 84 111 115
-2.998231 2.259907 6.815362 84 112 113
-3.176260 -2.548274 7.300977 136 158 163
-2.466446 -3.131394 5.643402 174 188 194
-3.173160 -2.539836 7.305688 60 92 98
-3.173160 -2.539836 7.305688 60 92 98
-2.012358 0.210590 4.554076 45 68 76
-1.879764 -0.288530 4.253926 83 114 123
-2.453704 -3.132235 5.642153 175 187 189
-5.310944 1.495358 12.665199 41 62 64
10.160965 -1.762066 -24.966358 119 141 146
-1.868096 -0.457734 4.408879 59 86 96
-3.108443 0.643036 7.460608 120 145 149
-5.390869 2.357455 13.086322 106 136 137
-17.207675 2.967076 42.453205 45 72 76
-3.004093 1.275412 7.258839 40 62 68
-3.089211 0.596395 7.482825 91 122 125
-24.434945 7.610870 60.742052 121 146 150
-2.299425 0.620127 5.547920 95 131 141
-5.475966 3.142827 13.528385 41 59 66
-5.116735 1.293894 12.733713 45 67 72
-3.047060 0.710206 7.496231 123 150 154
-5.370285 2.536299 13.338031 122 142 147
-5.412855 3.242623 13.442720 104 133 137
-1.787500 -0.108975 4.332477 104 128 134
-3.038157 0.699292 7.497174 71 96 100
-2.979076 0.989826 7.348559 115 138 140
-2.993290 1.105796 7.396897 99 125 131
-1.805300 0.059301 4.405409 66 94 105
-3.010730 0.701431 7.520018 63 95 100
-3.034952 0.758718 7.589269 47 70 78
-5.202340 2.403292 13.153103 126 148 153
-1.728902 0.688353 4.259617 87 119 124
-1.784726 -0.510776 4.404413 112 137 141
-2.881571 1.477894 7.223079 89 121 126
-1.725134 0.681861 4.259098 97 126 135
-5.784476 4.356543 14.673364 41 60 65
-5.695723 4.084243 14.481407 32 44 48
-2.828260 1.920461 7.088090 111 133 138
-2.828260 1.920461 7.088090 111 133 138
-2.059756 0.974883 5.135032 42 64 69
-2.859157 1.361393 7.216579 41 66 70
-2.803526 2.160531 7.060558 102 131 136
-2.904666 1.015927 7.374013 93 125 130
-5.726834 4.416694 14.692969 40 60 65
-2.947875 1.167174 7.496550 39 66 76
-5.093023 1.769528 13.183528 68 100 105
-2.838326 1.491581 7.245110 67 92 94
-2.917345 1.143833 7.466155 56 80 86
-1.726355 -0.058758 4.347158 104 130 137
-2.875676 1.618103 7.409209 109 135 141
-2.820648 1.490897 7.261138 61 89 90
-2.957986 -2.169682 7.662623 77 106 113
-1.709090 -0.098830 4.335296 101 127 134
-2.723427 2.378272 6.999089 109 132 134
-2.811098 1.448218 7.255760 62 91 96
-2.811098 1.448218 7.255760 62 91 96
-2.712698 2.575483 6.993571 39 59 64
-2.705661 2.236944 6.984693 118 137 140
4.922880 -2.259510 -13.140040 33 57 63
-2.798935 1.464025 7.258832 114 144 149
-1.769701 0.104856 4.529993 145 171 178
-2.810456 1.543591 7.302753 98 125 129
-2.791564 1.439727 7.255319 111 141 146
-5.685441 4.212514 14.974697 32 51 54
-2.744914 1.808167 7.144602 114 137 139
-2.783687 1.414740 7.266082 101 130 134
-2.759017 1.765753 7.194134 45 70 74
-2.693743 2.608034 7.019935 39 59 64
-2.754272 1.962139 7.188214 92 121 126
-2.822234 1.588671 7.386790 116 138 144
-2.665732 2.592143 6.954489 37 59 64
-1.583371 0.780781 4.088012 110 136 142
-5.509615 4.108213 14.865387 37 59 65
-2.693425 1.927038 7.177647 114 145 148
-2.691657 1.961104 7.189886 86 115 120
-2.022118 -3.193790 5.404142 47 73 80
-2.676813 1.858640 7.168763 109 138 143
-5.409201 4.027541 14.734172 57 78 80
-5.525704 4.621865 15.045094 38 62 68
-2.010169 -3.216666 5.406551 59 89 94
-2.635843 2.214408 7.089735 44 66 71
-2.653976 2.510947 7.199557 118 144 151
-2.651686 2.509754 7.194300 118 144 151
-2.646402 1.911258 7.203763 113 145 151
-1.733948 1.992776 4.648157 101 131 136
-2.614911 2.476889 7.178428 43 62 69
-2.531583 2.646174 6.973328 103 130 134
-2.532236 2.646700 6.975676 103 130 134
-2.613931 1.838998 7.218295 106 136 141
-1.589555 -0.474270 4.334382 83 111 118
-4.864814 2.774239 13.644508 139 160 161
-2.583312 2.453419 7.146004 81 106 110
-1.548750 -0.285370 4.232404 134 153 158
-2.732867 0.796872 7.601455 57 86 91
-2.688249 0.705375 7.509963 119 151 156
-1.572930 -0.502187 4.340356 79 108 117
-1.520277 -0.173809 4.204741 150 175 179
-2.524205 2.349969 7.113574 98 131 140
-1.346552 1.265560 3.693397 36 64 71
-2.672507 0.780075 7.600193 57 86 91
-2.672507 0.780075 7.600193 57 86 91
-1.567720 0.155559 4.375464 64 94 105
-2.649281 0.655590 7.554922 55 85 90
-1.509704 -0.447996 4.246767 91 123 134
-1.661140 1.913552 4.663947 89 118 123
-2.628825 0.720724 7.547314 129 156 160
-1.493116 -0.286724 4.214433 62 91 100
-4.603296 2.122720 13.459506 56 85 90
-0.840632 0.875814 2.268037 102 131 136
-2.568754 1.139575 7.417788 127 157 162
-1.484507 -0.231360 4.220339 51 78 88
-2.552942 1.077549 7.387391 118 150 155
-1.524058 0.097522 4.338305 133 162 169
-1.512807 0.074193 4.320556 71 106 116
-1.512807 0.074193 4.320556 71 106 116
-1.606345 0.280691 4.582176 160 179 186
-1.475884 -0.276084 4.242910 116 144 151
-1.461360 -0.318959 4.211095 143 171 178
-1.457719 -0.336890 4.204787 77 103 110
-2.516043 1.047978 7.431954 49 79 84
-1.465500 -0.076597 4.255530 155 178 186
-1.440630 -0.158145 4.227050 154 176 182
-2.366437 2.377638 7.064249 122 142 147
-1.459372 0.011415 4.292511 157 179 185
-1.481118 0.098024 4.365510 157 183 190
-2.424425 1.494810 7.270266 124 154 159
-1.462495 0.057786 4.322353 153 177 183
-2.419864 1.503984 7.289018 74 103 108
-2.442393 1.045964 7.429462 51 83 89
-4.404101 2.686127 13.687070 40 73 82
-1.291179 1.086519 3.845108 48 74 80
-1.399457 -0.344103 4.235757 147 167 172
-1.404567 -0.015797 4.246047 100 122 128
-1.404567 -0.015797 4.246047 100 122 128
-2.057027 -2.879790 6.361635 126 147 149
-1.409948 0.088250 4.296395 126 145 150
-1.516943 1.884132 4.614412 108 133 137
-2.311104 1.916544 7.184964 103 133 138
-1.395427 -0.455556 4.284263 39 57 64
-2.306724 1.896418 7.195963 92 121 126
-2.301899 1.919719 7.191871 51 80 84
-2.301899 1.919719 7.191871 51 80 84
-2.054131 -2.844587 6.449006 48 84 92
-1.351241 -0.112884 4.167567 109 138 147
-2.057379 -2.817879 6.530108 59 91 97
-1.329460 -0.144847 4.139057 111 134 142
-2.309056 1.553425 7.392601 139 160 162
-2.193647 2.456813 7.140520 101 130 135
-2.182709 2.400459 7.111975 107 136 143
-2.198803 1.923379 7.195602 74 104 109
-2.183562 2.440779 7.138465 63 90 94
-2.191076 1.890056 7.247643 62 93 96
-1.311361 0.178653 4.261625 76 115 124
-1.320129 0.222192 4.347044 82 113 122
-2.250109 0.691106 7.558403 59 93 99
-1.318051 0.266104 4.412570 77 111 124
-1.289364 0.219438 4.352726 56 88 101
-1.289364 0.219438 4.352726 56 88 101
-1.220300 -0.419086 4.123094 96 117 125
-1.160087 -0.415225 3.954850 79 101 107
-2.079953 -2.528687 7.267422 49 78 85
-1.298072 0.321275 4.446283 69 100 109
-1.298072 0.321275 4.446283 69 100 109
-1.298072 0.321275 4.446283 69 100 109
-4.244631 4.393740 15.055818 52 78 84
-1.100863 -0.018698 3.778770 102 128 135
-2.088764 1.148251 7.407077 117 146 151
-1.521862 -3.177014 5.418547 147 166 169
-1.511982 -3.182217 5.418335 167 182 185
-1.078898 -0.198175 3.820625 159 178 183
-1.980166 2.576908 7.150637 49 78 85
-1.980166 2.576908 7.150637 49 78 85
-1.056744 -0.224601 3.791647 71 99 110
-1.064038 -0.202744 3.822794 64 96 107
-1.151797 0.227747 4.279415 75 102 112
-1.151797 0.227747 4.279415 75 102 112
-3.920282 2.787414 15.446180 54 80 86
-4.155664 4.814754 16.371759 49 80 89
-1.825419 0.776488 7.129624 52 81 86
-1.825419 0.776488 7.129624 52 81 86
-1.114221 0.310181 4.400729 104 131 141
-1.114221 0.310181 4.400729 104 131 141
-1.753563 0.753450 7.144618 71 97 103
-3.338758 3.320586 13.885153 64 96 102
-0.947763 -0.345894 3.794390 129 158 167
-0.899464 -0.066576 3.628555 90 119 126
-0.928188 -0.252651 3.826320 162 182 187
-0.920918 -0.403380 3.830764 72 104 110
-0.991844 -0.664850 4.129806 107 137 142
-1.638368 1.230895 7.011067 122 151 155
-3.297193 3.467401 14.478018 48 70 75
-0.845813 -0.301310 3.750041 80 109 116
-1.571199 1.986992 7.156795 108 136 137
-0.859439 0.244182 3.818491 98 127 134
-0.823120 0.268375 3.819546 70 101 110
-1.425719 1.801253 6.880120 74 93 96
-1.408588 1.694144 6.891796 118 137 140
-1.379087 1.741689 6.893424 107 127 128
-0.748285 -0.220890 3.682458 116 135 142
-1.360155 1.824843 6.888918 121 141 142
-1.334630 1.893209 6.869613 125 148 150
-0.717097 -0.142595 3.634717 68 97 104
-0.733812 0.068340 3.768648 111 148 156
-0.727714 0.126682 3.801158 72 112 124
-0.696783 0.176922 3.843921 56 84 91
-0.990382 -2.808865 5.709872 125 143 144
-0.677840 -0.885429 3.877211 67 96 105
-0.674005 -0.863359 3.894933 118 144 151
-0.672596 -0.859288 3.886710 116 145 150
-0.669498 -0.851019 3.869955 117 146 153
-0.647661 -0.970600 3.753765 55 78 86
-0.636733 -0.905569 3.781899 66 96 107
-0.636164 -0.907925 3.786149 63 93 104
-0.621295 -0.078959 3.694155 81 117 125
-0.649101 -0.838786 3.890795 122 151 158
-0.632569 0.159455 3.854415 56 88 101
-0.630061 0.433229 3.922906 64 96 107
-0.605676 -0.010191 3.752675 73 107 123
-0.604547 -1.033227 3.796157 107 136 141
-0.598365 0.038954 3.762726 80 115 128
-0.595857 0.091995 3.747874 150 181 190
-0.597565 -1.070207 3.808461 55 82 92
-0.595652 -1.078983 3.808393 129 155 161
-0.597774 -0.848192 3.930580 72 110 122
-0.580731 -1.051808 3.815013 44 71 81
-0.661525 0.789403 4.489615 52 84 95
-0.580335 -0.848395 3.933284 66 102 112
-0.563811 -1.035821 3.829818 131 160 165
-0.506938 -0.371970 3.437336 109 128 135
-0.561960 -1.005992 3.870799 30 55 65
-0.535241 -1.080360 3.794132 68 96 107
-0.548382 0.569457 3.997986 111 140 144
-0.539445 0.557248 4.005692 53 84 93
-0.602679 0.918091 4.502664 71 103 109
-0.457149 -0.174398 3.542798 109 128 135
-0.558355 0.996756 4.598037 56 84 91
-0.419381 -0.284430 3.439142 106 125 130
-0.419381 -0.284430 3.439142 106 125 130
-0.613894 -3.120367 5.200888 133 160 164
-0.486628 0.574392 4.045380 99 136 144
-0.485627 0.555133 4.051124 55 78 86
-0.609290 -3.122274 5.196644 7 39 45
-0.448653 -0.976639 3.766168 102 124 129
-0.478295 0.577893 4.046759 119 151 157
-0.478295 0.577893 4.046759 119 151 157
-0.603605 -3.119484 5.230579 91 117 123
-0.405436 -1.001410 3.621787 83 112 121
-0.462556 0.664672 4.211053 133 161 168
-0.460545 0.679442 4.216128 88 116 127
-0.610386 -2.927727 5.748723 0 2 6
-0.579668 -3.047182 5.450386 30 49 56
-0.579668 -3.047182 5.450386 30 49 56
-0.579668 -3.047182 5.450386 30 49 56
-0.606351 -2.928918 5.737984 110 134 140
-0.577105 -3.035692 5.459707 133 153 158
-0.454525 0.680555 4.220362 130 157 167
-0.577201 -3.025031 5.471450 65 93 100
-0.605795 -2.925066 5.756907 105 131 137
-0.580694 -3.008499 5.512726 14 29 31
-0.380928 -0.082932 3.575058 96 124 131
-0.563389 -3.051189 5.453775 140 168 175
-0.374159 -0.148133 3.516879 118 138 143
-0.557473 -3.066379 5.437298 16 26 33
-0.379450 -1.005284 3.649869 85 113 120
-0.550544 -3.055771 5.448755 124 146 151
-0.433150 0.592777 4.182084 43 68 78
-0.551331 -3.002596 5.511494 17 22 20
-0.529286 -3.018950 5.466044 71 100 107
-0.359840 -1.012165 3.626312 61 89 100
-0.353530 0.104352 3.627263 131 160 167
-0.341250 -1.141534 3.558206 108 126 133
-0.338410 -1.223854 3.568656 107 129 140
-0.396414 0.647158 4.254808 42 66 78
-0.632869 1.505935 7.072572 157 178 180
-0.419655 0.899034 4.646431 106 138 144
-0.329359 -1.021925 3.607174 96 124 131
-0.330087 -0.958764 3.653579 84 108 114
-0.614581 1.496134 7.069859 163 175 175
-0.614581 1.496134 7.069859 163 175 175
-0.478620 -3.010665 5.457154 72 101 108
-0.476173 -3.010814 5.469749 142 161 168
-0.314526 -1.318926 3.522639 100 119 126
-0.312269 -1.027815 3.589368 89 116 126
-0.308537 -0.862281 3.574872 92 114 120
-0.356486 0.662409 4.268584 100 134 140
-0.572142 1.472979 7.080747 163 175 175
-0.572142 1.472979 7.080747 163 175 175
-0.273203 -0.559471 3.225986 105 127 133
-0.375149 0.797710 4.635427 104 136 141
-0.296489 -0.962769 3.623907 95 115 120
-0.265409 -0.566359 3.220785 101 123 129
-0.370481 0.779365 4.623510 87 121 127
-0.551864 1.438880 7.082766 158 176 177
-0.279360 -1.258679 3.502134 76 95 102
-0.532017 1.455118 7.083699 162 176 175
-0.518211 1.503551 7.069699 136 157 158
-0.518644 1.437054 7.080830 150 168 169
-0.512146 1.456646 7.077118 161 177 176
-0.512069 1.456815 7.079807 161 177 176
-0.509242 1.442628 7.089093 117 141 141
-0.259070 -1.286939 3.476022 95 114 119
-0.233720 -0.599171 3.193460 105 124 131
-0.490021 1.452525 7.109694 62 93 96
-0.490021 1.452525 7.109694 62 93 96
-0.481993 1.438044 7.112414 37 69 75
-0.471129 1.523790 7.070375 114 145 146
-0.471355 1.363152 7.127414 42 69 73
-0.466609 1.509193 7.088255 63 93 94
-0.466609 1.509193 7.088255 63 93 94
-0.359600 -3.000284 5.448596 75 103 110
-0.457742 1.522350 7.086603 59 86 90
-0.249363 0.582225 4.198487 87 116 125
-0.241480 0.443033 4.180559 45 72 82
-0.373235 1.923363 6.969911 149 163 162
-0.148603 -0.567805 3.134427 90 114 120
-0.132788 -0.667421 3.120249 109 129 134
-0.112564 0.510561 4.213370 55 87 98
-0.054340 -1.394975 3.301198 128 148 153
-0.038648 -0.298961 3.192899 72 102 113
-0.029564 0.612684 4.271095 74 112 124
-0.030467 2.042674 6.085141 119 145 145
-0.004331 2.000503 6.944022 117 141 141
-0.004130 2.000717 6.945468 117 141 141
0.001021 2.026052 6.948184 122 145 147
0.004210 2.009880 6.957713 41 64 66
0.017689 2.004059 6.952220 61 87 93
0.020347 2.031824 6.967480 35 61 67
0.052337 1.654889 7.029472 80 107 111
0.061543 0.638376 3.993254 97 125 132
0.061543 0.638376 3.993254 97 125 132
0.085634 0.388343 4.020643 68 103 113
0.090016 0.362025 4.033268 63 97 110
0.065252 -0.675318 3.004209 58 78 83
0.065252 -0.675318 3.004209 58 78 83
0.092982 0.755554 4.003960 108 136 147
0.076778 -1.183012 3.459292 62 88 100
0.103756 0.393458 4.013322 74 107 116
0.103756 0.393458 4.013322 74 107 116
0.116725 0.317251 4.048689 138 164 170
0.099365 -1.179113 3.461749 70 97 107
0.124722 0.395102 4.015529 69 98 107
0.100137 -0.453345 3.110464 69 93 99
0.100137 -0.453345 3.110464 69 93 99
0.110745 -1.401209 3.362109 142 164 169
0.110745 -1.401209 3.362109 142 164 169
0.138010 0.370477 4.018078 74 103 112
0.143123 0.321053 4.030008 135 164 169
0.117783 -1.391886 3.361974 62 89 99
0.150033 0.335639 4.023559 73 108 118
0.129713 -1.445386 3.376421 111 137 144
0.170365 0.631810 3.928622 92 115 123
0.216433 1.004537 4.231137 141 167 173
0.183827 -1.215660 3.458217 77 106 113
0.179760 -0.302562 3.197362 131 153 159
0.208936 -1.148231 3.483838 62 89 99
0.238809 0.755341 3.936085 143 172 179
0.192800 -0.363419 3.168343 61 85 91
0.237252 0.617765 3.842134 99 118 125
0.215367 -0.099881 3.431831 142 168 174
0.203089 -0.362305 3.166602 148 171 173
0.232338 -0.066903 3.483304 93 123 134
0.226281 -1.276818 3.420318 96 120 126
0.277737 0.629125 3.802133 107 131 137
0.237714 -0.417586 3.133063 77 99 105
0.230225 -0.616157 3.042637 49 69 74
0.298919 0.273749 3.847046 140 168 175
0.297409 0.507265 3.804464 109 138 145
0.309290 0.500212 3.797425 91 117 124
0.312715 0.516254 3.795278 104 130 137
0.312715 0.516254 3.795278 104 130 137
0.282243 1.413490 3.361693 97 118 120
0.291051 -1.088567 3.503889 64 93 107
0.294448 -1.142881 3.485108 60 88 95
0.313092 -1.167758 3.466686 67 93 100
0.318948 -1.085415 3.504367 58 86 97
0.318508 -1.142975 3.477257 71 92 100
0.318508 -1.142975 3.477257 71 92 100
0.372466 0.830092 3.965881 73 110 118
0.351329 0.630222 3.724435 77 111 124
0.351329 0.630222 3.724435 77 111 124
0.312039 -1.473115 3.361234 25 30 29
0.349745 0.091042 3.656660 107 136 141
0.366199 0.720891 3.788308 141 173 179
0.332263 -1.144403 3.473124 69 92 100
0.372117 0.157710 3.666739 75 107 120
0.385293 0.267196 3.791643 137 166 170
0.341551 -1.264860 3.385197 94 122 129
0.386260 0.708062 3.753323 138 170 176
0.358011 -1.049605 3.509209 52 84 95
0.414311 0.789454 3.856544 63 99 107
0.089858 0.325386 0.748780 103 121 122
0.409171 0.668595 3.755720 64 103 117
0.382575 -1.959857 3.552768 129 144 146
0.531028 -2.705126 4.890971 16 31 34
0.224257 -1.147817 2.085361 1 13 15
0.384664 -1.019100 3.512276 39 67 78
0.543823 -3.007338 4.997621 119 141 146
0.541775 -3.009438 4.978620 116 139 141
0.304607 -1.709986 2.817218 120 141 143
0.363733 -1.462008 3.343251 25 34 37
0.568468 -2.929879 5.211675 4 20 26
0.568468 -2.929879 5.211675 4 20 26
0.344622 -0.502476 3.118990 39 58 61
0.421188 0.672070 3.763395 109 145 153
0.370884 -1.301774 3.324460 96 119 127
0.427816 0.681831 3.739031 45 77 88
0.438021 0.724854 3.802023 47 74 84
0.420660 0.093223 3.611417 85 115 126
0.485558 0.922642 4.091322 77 110 119
0.445512 0.447622 3.758174 75 101 108
0.445512 0.447622 3.758174 75 101 108
0.453706 0.227511 3.785669 45 74 79
0.437747 0.152616 3.652957 80 110 121
0.477238 0.827871 3.932439 94 123 130
0.453756 0.583960 3.746285 56 85 94
0.465165 0.748409 3.827895 109 141 147
0.434873 -0.016891 3.578247 108 140 151
0.434873 -0.016891 3.578247 108 140 151
0.482282 0.433704 3.949346 137 167 172
0.465480 0.669963 3.784207 112 146 152
0.468370 0.642517 3.773280 54 81 91
0.429237 -1.057738 3.490222 62 85 93
0.433452 -1.069263 3.483589 128 148 153
0.441040 -1.042139 3.497523 66 94 101
0.438019 -1.080590 3.474218 61 80 87
0.489678 0.729265 3.814007 119 155 163
0.489678 0.729265 3.814007 119 155 163
0.492524 0.618777 3.793101 54 81 91
0.668968 -2.963690 5.245329 13 32 39
0.495490 0.681239 3.797137 67 105 117
0.511035 0.813028 3.914331 143 172 177
0.487296 0.472591 3.733851 107 135 146
0.671012 -2.973874 5.209573 25 44 49
0.671012 -2.973874 5.209573 25 44 49
0.675053 -2.967302 5.219189 108 121 123
0.673772 -2.974609 5.199400 98 110 112
0.466005 -1.076079 3.466348 122 142 147
0.468836 -1.042060 3.486873 75 101 108
0.475322 -1.074589 3.465984 70 94 100
0.498520 0.083385 3.580160 84 111 125
0.465482 -1.438241 3.334332 33 52 57
0.493361 -1.159686 3.385449 69 98 107
0.561347 0.171929 3.697103 115 144 149
0.632732 -2.452875 4.152692 23 41 48
0.575583 0.158697 3.686899 110 136 142
0.522342 -1.422106 3.308060 25 37 41
0.596869 0.470360 3.690274 94 126 132
0.696511 0.987892 4.289226 128 152 158
0.570397 -0.910836 3.503593 79 110 119
0.634369 -2.000090 3.846589 15 27 29
0.547558 -1.432513 3.276082 25 37 39
0.547558 -1.432513 3.276082 25 37 39
0.597867 -0.878864 3.507749 64 95 104
0.616852 0.329984 3.554018 113 137 143
0.604810 -0.933238 3.485939 71 103 114
0.938438 -3.306992 5.463684 16 26 26
0.622550 0.314753 3.537818 106 134 141
0.624924 -0.864642 3.505643 63 93 104
0.625590 -0.877980 3.502777 59 93 106
0.634554 -0.872123 3.501897 57 89 102
0.687433 0.482034 3.679332 103 132 141
0.704024 0.111064 3.705477 70 99 108
0.817550 1.025375 4.260562 78 111 120
0.640615 -1.081827 3.357829 67 91 97
0.657072 -1.055614 3.369721 84 110 116
0.688375 -0.841931 3.500258 77 110 119
0.707144 0.406610 3.562275 90 117 127
0.695747 -0.873380 3.483140 82 111 118
0.748428 0.548085 3.709203 104 128 134
0.699699 -0.849779 3.492754 82 114 125
0.849385 0.933701 4.151093 94 123 132
0.750034 -0.004734 3.604158 51 80 94
0.725057 -0.821730 3.497037 85 115 126
0.742338 -0.065474 3.542031 73 108 118
0.742338 -0.065474 3.542031 73 108 118
0.744066 -0.083231 3.520754 70 105 118
0.755449 -0.774485 3.505679 84 113 120
0.780643 0.001373 3.599522 52 83 98
0.738745 0.273325 3.370862 138 167 172
0.891540 0.845206 4.095131 124 152 159
0.752886 -0.862393 3.466551 87 119 125
0.754523 -0.852431 3.471906 83 114 123
0.744925 0.284398 3.371429 118 146 153
0.754601 0.340316 3.405577 81 114 123
0.751214 0.309004 3.375669 129 153 159
0.783661 -0.062386 3.534753 68 101 116
0.777663 -0.786400 3.495639 78 108 119
0.777663 -0.786400 3.495639 78 108 119
0.786159 -0.706454 3.518040 51 86 96
0.761644 0.260548 3.366364 129 158 163
0.819741 0.504369 3.598027 105 134 141
0.953947 0.935363 4.135375 70 100 111
0.788137 0.321619 3.393231 55 84 93
0.786320 0.180754 3.365685 132 158 165
0.927802 0.799872 3.939160 91 120 127
0.809115 0.341926 3.392560 153 172 179
0.805043 0.200917 3.358152 62 92 103
0.817838 -0.869350 3.427475 82 117 127
0.817838 -0.869350 3.427475 82 117 127
0.811305 0.159227 3.373566 59 83 95
0.838888 -0.746425 3.495507 129 154 158
0.809437 0.261661 3.350685 128 156 163
0.820150 -0.937936 3.359635 65 92 102
0.827003 0.256852 3.351210 147 173 179
0.861919 -0.810373 3.448700 83 115 121
0.916323 0.521331 3.633381 38 66 77
0.862484 -0.821283 3.439813 91 118 128
0.864480 -0.815913 3.444043 137 164 168
0.870103 -0.811381 3.443126 92 121 130
0.870103 -0.811381 3.443126 92 121 130
0.883193 -0.812792 3.431493 73 104 113
0.887469 -0.786768 3.445321 71 99 106
0.891049 -0.949699 3.393108 43 54 58
0.891049 -0.949699 3.393108 43 54 58
0.909058 -0.737304 3.433660 126 154 161
0.912823 -0.737907 3.435627 126 154 161
0.921814 -0.698337 3.448443 78 104 111
0.922790 -0.714727 3.445661 92 118 125
0.920493 0.223535 3.393442 109 138 145
0.934402 -0.700165 3.436158 131 157 163
0.959824 -0.618699 3.444092 118 146 153
0.974919 -0.612595 3.444624 123 142 149
1.030485 -0.215240 3.591674 69 97 108
1.011661 -0.568169 3.455388 46 74 81
1.028249 -0.489798 3.500046 112 141 148
1.016921 -0.543349 3.462645 115 143 150
1.031966 -0.814708 3.517017 43 72 81
1.070953 -0.215877 3.580059 69 99 110
1.043221 -0.489168 3.481102 101 130 135
1.087638 -0.231098 3.604431 108 138 143
1.064641 -0.425723 3.509818 105 134 139
1.076625 -0.322799 3.535313 66 98 111
1.076625 -0.322799 3.535313 66 98 111
1.074773 -0.398828 3.513136 111 140 145
1.095500 -0.187352 3.575023 61 93 106
1.085648 -0.323269 3.532183 59 89 100
1.091058 -0.508736 3.517077 27 42 45
1.078440 -0.888401 3.470844 115 140 144
1.091859 -0.857529 3.461208 128 155 159
1.090920 -0.886483 3.456200 60 86 92
1.094115 -0.938570 3.467452 47 69 75
1.320387 0.676995 4.161096 22 49 63
1.132038 -0.217715 3.553874 105 127 133
1.150374 -0.333500 3.602356 32 50 57
1.146110 -0.167424 3.570792 86 114 121
1.146845 -0.156481 3.573104 102 131 136
1.054592 -0.588274 3.284276 78 108 119
1.052174 -0.641958 3.269438 80 108 115
1.204386 0.088620 3.728199 36 63 73
1.220587 0.063091 3.752253 52 78 85
1.208377 -0.070570 3.684328 39 58 65
1.249154 0.074366 3.738254 70 99 108
1.138185 -0.834566 3.398965 60 90 101
1.183953 -0.439768 3.526869 43 69 75
1.407032 0.694433 4.169089 28 55 69
1.407032 0.694433 4.169089 28 55 69
1.249238 0.032216 3.686194 122 151 156
1.258174 -0.049038 3.655860 74 99 109
1.232297 -0.333150 3.580334 72 104 117
1.419017 0.561819 4.103244 28 45 54
1.278510 -0.087176 3.692491 100 128 135
1.177572 -0.812152 3.393798 57 86 101
1.300283 0.114857 3.730629 78 107 114
1.284446 -0.280312 3.678325 86 105 110
1.620107 1.096420 4.643521 136 156 161
1.525281 0.938264 4.365370 85 116 125
1.285421 -0.286186 3.680153 17 31 37
1.177074 -0.837674 3.356436 61 90 97
1.293410 -0.289830 3.676225 24 42 49
1.258446 -0.333297 3.575398 59 88 97
1.316393 0.058795 3.668492 112 141 150
1.314516 -0.072534 3.586365 88 117 122
1.226330 -0.818239 3.343135 112 132 137
1.567265 0.875472 4.218519 84 107 115
1.238846 -0.838441 3.337803 69 96 106
1.232543 -0.524948 3.302803 121 152 161
1.272658 -0.492659 3.373174 48 68 73
1.254522 -0.592700 3.329406 42 61 68
1.257995 -0.825875 3.328125 65 94 103
1.276215 -0.497129 3.363537 46 68 74
1.273852 -0.503556 3.354444 51 77 84
1.302352 -0.796386 3.398007 107 132 136
1.262399 -0.539858 3.284168 121 149 156
1.286690 -0.496684 3.347065 49 73 79
1.524537 0.648213 3.948760 58 89 98
1.310315 -0.688930 3.394907 25 42 51
1.290348 -0.501144 3.334856 126 152 158
1.506515 0.543676 3.809158 94 116 122
1.527916 0.622381 3.848582 92 115 123
1.527916 0.622381 3.848582 92 115 123
1.451515 -0.195692 3.659641 100 126 132
1.293557 -0.901636 3.263047 55 83 94
1.311682 -0.379974 3.273992 161 178 181
1.349263 -0.538297 3.323554 72 95 103
1.303750 -0.613211 3.205943 92 118 124
1.416717 -0.273744 3.453008 139 158 166
1.352343 -0.824606 3.294184 47 73 80
1.419067 -0.237549 3.427935 86 105 112
1.419067 -0.237549 3.427935 86 105 112
1.423168 -0.233747 3.422000 164 177 179
1.353186 -0.578040 3.246138 101 125 131
1.353186 -0.578040 3.246138 101 125 131
1.433125 -0.257492 3.389812 156 175 178
1.719392 1.048616 4.048018 84 110 117
1.467771 0.085460 3.448590 62 91 100
1.490458 -0.211632 3.509195 72 104 110
1.490458 -0.211632 3.509195 72 104 110
1.406577 -0.294044 3.302359 41 63 69
1.377527 -0.346196 3.218120 45 66 74
1.395799 -0.506018 3.247869 83 102 107
1.395799 -0.506018 3.247869 83 102 107
1.471195 0.020403 3.407376 61 82 90
1.412448 -0.317736 3.274492 64 90 96
1.402794 -0.489777 3.251849 113 130 133
1.398524 -0.506056 3.240948 138 153 156
1.407483 -0.488513 3.251493 43 62 67
1.514648 -0.213080 3.498823 43 77 90
1.466456 -0.269859 3.378248 144 163 166
1.394863 -0.380919 3.202869 43 68 78
1.792630 1.090434 4.115361 71 99 110
1.479043 -0.033177 3.392689 74 100 107
1.467780 -0.270899 3.369107 87 107 112
1.400349 -0.432261 3.210905 122 141 146
1.519606 -0.209470 3.485970 149 169 174
1.516646 -0.224339 3.475393 59 89 100
1.465396 -0.294495 3.354745 34 48 54
2.124621 1.694180 4.871866 141 167 173
2.126336 1.671760 4.870010 143 164 166
1.457903 -0.321225 3.323049 71 97 103
1.472754 -0.267943 3.343874 126 145 150
1.473209 -0.298695 3.346889 22 34 36
1.457170 -0.950145 3.322863 69 93 99
1.318298 -0.666742 2.988948 66 92 99
1.412459 -0.404992 3.193930 96 115 120
1.414291 -0.393922 3.185348 47 63 69
1.422775 -0.424032 3.202081 71 95 101
1.419932 -0.370602 3.193823 133 153 158
1.831000 1.088635 4.114327 77 106 113
1.474584 -0.329851 3.303086 27 47 52
1.499911 0.025595 3.348580 79 102 110
1.479381 -0.305677 3.307755 105 126 128
1.464637 -0.341076 3.274525 119 140 142
1.524736 0.112101 3.394784 115 144 153
1.483194 -0.924210 3.311673 69 88 96
1.469625 -0.335066 3.266125 67 92 96
1.438571 -0.373347 3.187377 110 132 138
1.553666 0.250365 3.438475 78 107 116
1.615544 0.725060 3.566149 107 129 135
1.442332 -0.403105 3.191067 56 75 82
1.490099 -0.308533 3.294873 122 139 142
1.467511 -0.476592 3.244051 103 122 127
1.557377 0.126470 3.427317 62 93 102
1.557604 0.126458 3.427489 62 93 102
1.447010 -0.393334 3.181929 53 71 78
1.549394 0.105155 3.401877 53 76 84
1.489497 -0.308784 3.274002 93 109 115
1.489497 -0.308784 3.274002 93 109 115
1.453389 -0.401463 3.182936 135 157 162
1.507068 -0.921423 3.310800 63 86 94
1.499905 -0.270226 3.276699 103 125 131
1.423930 -0.496071 3.108737 85 117 123
1.423930 -0.496071 3.108737 85 117 123
1.410563 -0.551161 3.077185 76 105 112
1.569279 0.523527 3.409927 98 119 127
1.529209 0.034764 3.329690 91 110 117
1.488557 -0.360494 3.239438 40 59 64
1.524234 -0.121565 3.311561 135 157 163
1.496052 -0.314536 3.251109 105 124 131
1.523048 -0.042223 3.303806 136 162 169
1.424430 -0.540087 3.091993 94 120 127
2.588666 -2.623972 5.735652 83 103 108
1.505360 -0.251954 3.263078 94 115 123
1.533090 -0.103286 3.319103 128 150 156
1.538393 -0.124882 3.310160 104 136 142
1.529025 -0.160350 3.283620 121 147 153
1.501367 -0.323212 3.225947 140 159 166
1.501367 -0.323212 3.225947 140 159 166
1.836937 0.995338 3.937083 68 105 113
1.433749 -0.545659 3.068786 142 159 168
1.534102 -0.171454 3.282252 134 158 164
1.504658 -0.372630 3.220061 108 129 131
1.539559 -0.191732 3.263457 150 172 178
1.549571 -0.175850 3.281157 117 145 152
1.527959 -0.460196 3.238401 69 91 96
1.519074 -0.304811 3.214918 99 121 127
1.585460 0.442880 3.341599 83 112 126
1.519782 -0.408568 3.217199 119 138 141
1.796873 0.909681 3.791360 71 107 115
1.796873 0.909681 3.791360 71 107 115
1.520386 -0.392853 3.213664 109 127 134
1.557999 -0.170650 3.288776 55 90 100
2.550410 -2.721207 5.496689 32 50 51
1.448979 -0.530254 3.057791 76 100 112
1.445335 -0.577395 3.050143 119 143 149
1.549389 -0.188946 3.268189 67 101 114
1.534745 -0.456112 3.234266 126 147 149
1.534745 -0.456112 3.234266 126 147 149
1.597047 0.499001 3.347376 79 105 121
1.533558 -0.273361 3.223408 99 116 119
1.533558 -0.273361 3.223408 99 116 119
1.605660 0.525991 3.359250 92 115 123
1.986835 1.138766 4.182323 42 69 79
1.986835 1.138766 4.182323 42 69 79
1.526326 -0.388991 3.207377 76 100 106
1.581731 -0.154499 3.323230 113 141 148
1.564425 -0.181633 3.274810 117 143 149
1.544286 -0.449382 3.236484 59 85 91
1.449718 -0.587613 3.029461 77 106 115
1.908177 1.032005 3.987069 133 159 166
1.592332 0.049865 3.321714 122 144 150
1.530073 -0.479546 3.197828 57 79 84
1.534134 -0.385926 3.200586 78 100 106
1.532904 -0.346463 3.193449 130 149 154
1.613794 0.509607 3.347071 75 102 116
1.470661 -0.580129 3.062270 69 96 106
1.869747 -1.522910 3.938227 124 146 152
1.474549 -0.569774 3.067347 123 147 153
1.556485 -0.436717 3.238569 128 148 153
1.538424 -0.473344 3.197053 139 159 164
1.547384 -0.256055 3.208191 96 119 127
1.784188 0.855468 3.689936 79 112 121
1.945532 1.057534 4.027460 116 140 146
1.877370 -1.539476 3.925461 105 131 137
1.543002 -0.477436 3.188450 128 147 154
1.617808 -0.153748 3.347690 51 78 88
1.477447 -0.590645 3.046566 126 151 155
1.567451 -0.439909 3.222976 55 79 85
1.488540 -0.588699 3.048881 79 108 117
1.633387 0.470319 3.327057 128 147 154
1.495568 -0.577309 3.059351 83 111 118
1.637496 0.488975 3.334507 66 93 107
1.941921 1.018547 3.965998 113 142 151
1.880708 0.935177 3.812717 76 106 117
1.500372 -0.586101 3.044371 134 156 162
1.565768 -0.333714 3.171046 72 90 97
1.650426 0.435465 3.326219 67 96 105
1.650426 0.435465 3.326219 67 96 105
1.588133 -0.429062 3.214847 123 143 148
1.655759 0.485170 3.330364 130 153 161
1.531573 -0.559007 3.085179 39 60 68
1.513061 -0.580307 3.053712 121 143 149
1.644479 0.233942 3.300525 89 111 117
1.658754 0.428581 3.323268 79 104 114
1.542626 -0.504084 3.095933 57 84 94
1.540936 -0.540461 3.087769 102 124 130
1.608769 -0.418165 3.207784 82 104 110
1.936048 -1.577705 3.893791 27 41 47
1.622780 -0.217497 3.220843 130 156 162
1.682280 0.501614 3.324809 77 105 116
1.540513 -0.574896 3.058770 72 99 109
1.596174 -0.473974 3.164923 54 78 84
1.682267 0.409486 3.315510 81 104 112
1.687213 0.478411 3.322835 121 147 153
1.687636 0.458135 3.320044 68 94 110
1.617982 -0.431421 3.191585 74 100 107
1.600275 -0.304983 3.150175 87 109 115
1.609473 -0.495623 3.168332 95 117 122
1.608639 -0.461990 3.158360 62 90 101
1.663813 -0.197155 3.261897 131 151 156
2.469759 -2.907720 4.940003 98 114 120
1.964495 -1.567737 3.894458 26 39 47
1.612463 -0.479020 3.160238 127 146 151
1.605365 -0.326042 3.142863 88 114 121
1.674377 -0.176632 3.279421 91 113 119
1.673515 -0.177819 3.275605 97 121 127
1.705584 0.506019 3.321029 72 100 111
2.475732 -2.926269 4.938361 101 117 124
1.630727 -0.427344 3.189298 132 151 154
1.553766 -0.595994 3.018925 88 112 118
1.569247 -0.583886 3.031428 72 99 109
1.721578 0.453807 3.309728 100 128 135
1.724867 0.487693 3.315061 73 102 111
1.709576 0.253997 3.289298 83 109 115
1.709576 0.253997 3.289298 83 109 115
1.709576 0.253997 3.289298 83 109 115
1.566270 -0.593465 3.020121 142 161 168
1.725285 0.457000 3.308335 81 105 117
1.725285 0.457000 3.308335 81 105 117
1.570708 -0.590172 3.023116 45 79 92
1.562566 -0.600443 3.005112 89 115 122
1.642453 -0.221228 3.143845 71 100 107
1.580052 -0.592380 3.024368 129 158 163
1.739504 0.454199 3.305423 53 77 89
1.583861 -0.595710 3.020862 125 150 154
1.744543 0.473143 3.308524 132 155 163
1.744543 0.473143 3.308524 132 155 163
1.645257 -0.312096 3.130446 123 143 148
1.736764 0.329041 3.293678 76 104 115
1.736764 0.329041 3.293678 76 104 115
1.729668 -0.127298 3.284707 74 100 112
1.895054 0.816501 3.587879 115 144 149
1.717229 -0.149694 3.256072 79 105 117
1.717229 -0.149694 3.256072 79 105 117
1.718256 -0.186759 3.252166 131 151 156
1.752787 0.031396 3.313286 60 82 93
1.752787 0.031396 3.313286 60 82 93
1.718655 -0.196379 3.251577 51 72 80
1.731185 -0.133398 3.266222 88 114 121
1.735041 -0.128901 3.270290 133 154 162
1.727900 -0.202990 3.251474 39 60 68
1.608621 -0.598464 3.027978 59 85 92
1.729259 -0.188963 3.250598 122 142 147
1.739548 -0.128907 3.264202 90 113 121
1.733057 -0.144187 3.248410 56 75 83
1.734524 -0.195823 3.249897 49 67 78
1.718203 -0.439809 3.211856 45 64 71
1.751735 -0.123417 3.258773 92 115 123
1.779356 0.419391 3.296477 84 110 122
1.779356 0.419391 3.296477 84 110 122
1.762206 -0.112715 3.269637 151 170 175
1.908160 0.785317 3.520978 136 155 160
1.515106 0.044082 2.781766 72 95 103
1.759230 -0.161262 3.248905 59 88 97
1.878649 0.731726 3.446107 94 125 134
1.812349 -0.061949 3.337064 102 128 135
1.798920 0.032462 3.304259 67 91 103
1.798920 0.032462 3.304259 67 91 103
1.852503 0.651034 3.376533 126 148 154
1.801431 -0.082945 3.296138 144 162 169
1.810465 0.027634 3.306963 117 140 148
1.808849 -0.073469 3.305346 27 45 52
1.808849 -0.073469 3.305346 27 45 52
1.811183 0.508344 3.295875 66 82 88
1.788742 -0.111312 3.261150 121 140 145
1.825196 -0.066651 3.326771 109 130 132
1.771007 -0.246916 3.233247 52 71 78
1.790048 -0.203262 3.260052 109 128 135
1.812971 0.049351 3.294212 127 146 153
1.859635 0.637509 3.364279 124 146 152
1.809790 -0.090139 3.287021 33 51 58
1.809790 -0.090139 3.287021 33 51 58
1.813126 0.074201 3.283000 116 139 147
1.784786 -0.538606 3.238681 102 122 127
1.804391 -0.106056 3.264363 35 50 53
1.771325 -0.370578 3.206524 104 133 140
1.790320 -0.135859 3.233943 124 146 152
1.791272 -0.150343 3.236403 117 139 145
1.866047 0.623906 3.355047 124 146 152
1.873688 0.634499 3.367696 30 56 63
1.793595 -0.154528 3.232937 15 36 44
1.815272 0.210540 3.260859 115 151 159
1.808851 -0.091564 3.254583 133 148 150
1.819702 0.256184 3.266147 118 150 161
1.863244 0.597475 3.338364 122 145 153
1.837932 0.507389 3.289781 73 98 108
1.854190 0.571399 3.317285 125 144 149
1.817869 0.171264 3.255629 132 154 160
1.811821 -0.111940 3.250718 130 148 149
1.829521 0.310436 3.271863 113 144 153
1.826856 0.216570 3.268059 10 29 34
1.808767 -0.100369 3.241205 103 120 123
1.834015 0.377942 3.276231 129 151 157
1.839156 0.461430 3.283184 127 155 162
1.856675 0.560589 3.311088 122 141 148
1.843470 0.480954 3.286382 111 137 143
1.854101 0.543082 3.296360 108 128 133
1.854113 0.543107 3.296298 106 126 131
1.860104 0.557471 3.305521 33 60 70
1.850672 0.442486 3.290139 30 53 61
1.850672 0.442486 3.290139 30 53 61
1.844264 0.385034 3.279564 14 42 49
1.844264 0.385034 3.279564 14 42 49
1.853744 0.467958 3.292159 17 39 50
2.779082 -2.790704 5.058066 74 83 86
1.852834 0.480149 3.290225 36 61 71
1.858167 0.547432 3.296629 41 67 73
1.856992 0.490239 3.292961 25 47 58
1.858259 0.531793 3.294528 25 41 48
1.855945 0.464049 3.281857 134 151 154
1.862086 0.535739 3.287755 118 143 145
1.861314 0.524111 3.285471 137 152 154
1.866138 0.523220 3.292472 135 153 154
2.205100 -1.544262 3.853644 122 134 140
1.847207 0.628273 3.059443 98 126 133
2.131492 0.999118 3.546297 150 167 170
2.027704 0.857794 3.326408 83 115 121
1.845475 0.301583 3.018993 93 120 130
1.906290 -0.078678 3.112597 139 156 159
1.875980 0.175345 3.043383 116 135 142
1.926014 -0.074866 3.123591 17 41 47
1.931256 -0.076725 3.113548 153 168 170
1.946798 0.710678 3.105086 158 170 174
1.863870 0.610014 2.961744 103 121 128
2.358653 -1.524983 3.828443 119 134 137
1.922475 -0.094652 3.075841 155 172 175
1.908504 -0.117631 3.034317 78 110 115
1.914144 -0.108644 3.038458 147 167 172
1.893437 -0.127994 3.001771 68 96 103
1.893437 -0.127994 3.001771 68 96 103
1.856023 0.561293 2.916346 97 123 130
1.913529 -0.119973 3.020677 151 170 175
1.906287 -0.134569 2.991839 153 174 176
1.905318 -0.135227 2.983084 146 162 168
1.896398 -0.158643 2.938004 163 176 178
1.887899 -0.176268 2.910977 64 90 96
1.875233 -0.193965 2.862004 71 100 104
1.878591 -0.200114 2.846136 158 173 176
1.968906 0.652804 2.929418 162 171 174
2.217099 -0.054422 3.021451 103 125 131
2.221090 -0.062484 3.001231 107 126 133
2.221090 -0.062484 3.001231 107 126 133
2.232694 -0.070488 2.976924 103 122 127
2.279452 -0.041739 3.020578 83 109 115
2.299011 -0.035607 3.021833 135 157 162
2.285748 -0.053668 2.988540 93 115 121
2.301159 -0.098140 2.873243 87 103 109
2.301159 -0.098140 2.873243 87 103 109
2.525215 -0.998981 3.179418 11 16 19
2.487686 -0.029315 2.944363 79 98 106
2.540996 -0.020022 2.938398 64 83 90
2.540996 -0.020022 2.938398 64 83 90
2.581097 -0.005456 2.950403 14 20 25
2.588877 -0.001248 2.956301 84 96 98
2.562572 -0.020670 2.925418 112 121 124
