ply
format ascii 1.0
element vertex 803
property float x
property float y
property float z
property uchar red
property uchar green
property uchar blue
end_header
-6.597059 -0.565615 7.414808 57 85 96
-5.564272 -2.394335 6.514342 82 101 108
-5.589078 -2.145949 6.774617 72 95 103
-5.589078 -2.145949 6.774617 72 95 103
-9.958250 0.825161 12.827305 180 178 178
-9.959478 0.824309 12.890143 99 104 103
-9.939075 0.877598 12.902297 210 208 208
-9.849937 1.184719 12.791158 115 126 130
-9.936652 0.848207 12.913004 102 106 107
-9.859443 1.158899 12.833382 212 213 211
-9.935645 0.824443 12.946408 61 79 90
-9.933492 0.717192 12.961168 155 159 160
-9.843729 1.214986 12.861121 109 115 122
-9.934678 0.733010 12.994795 205 210 213
-9.924162 0.885679 13.112163 68 79 83
-9.919203 0.933260 13.116481 223 223 223
-9.918266 0.909314 13.118057 212 214 215
-9.839868 1.239705 13.036639 228 232 233
-9.723504 1.595342 13.187846 166 171 172
-9.728866 1.304355 13.798808 254 250 249
-9.707059 1.266515 13.991119 253 255 255
-8.760437 2.933337 12.732544 78 99 107
-8.689953 3.496670 12.749057 44 67 75
-9.581526 1.657252 14.203521 162 172 179
-9.508474 1.631842 14.190443 149 161 167
-8.676675 2.528202 13.096159 83 105 111
-9.010817 2.348769 13.858708 120 136 142
-8.952985 2.359283 13.786686 123 139 145
-8.851724 2.454725 13.746576 105 124 129
-8.752462 2.466694 13.655498 155 177 189
-7.811735 4.120146 12.458946 63 87 93
-7.985019 3.304920 12.767580 126 152 158
-7.833937 3.336568 12.553108 127 153 159
-7.857344 3.339808 12.636512 62 87 91
-7.999829 3.265815 12.872108 136 147 155
-8.497634 2.477907 13.743904 65 77 81
-7.944125 3.195227 12.859235 106 122 128
-7.842650 4.016315 12.700479 60 82 88
-4.731228 -1.240067 7.655246 74 106 112
-8.081993 2.776320 13.198032 89 117 124
-7.808387 3.190737 12.796067 113 133 138
-7.895023 3.553726 13.009981 75 103 114
-8.002063 2.825636 13.210632 114 130 136
-7.309399 4.658315 12.092329 43 69 75
-3.322200 -2.758558 5.451199 132 154 160
-7.750206 3.042262 12.869019 77 94 97
-7.861151 2.814684 13.197334 97 119 130
-7.813731 2.828031 13.171090 115 129 135
-7.638951 3.597025 12.916892 37 68 77
-7.546193 3.343762 12.808457 125 139 145
-7.112414 4.672812 12.147391 31 56 60
-7.435949 3.383993 12.745253 114 140 147
-7.128149 4.788033 12.231099 79 108 117
-7.195518 4.265711 12.392618 103 123 128
-7.108673 4.707004 12.249201 42 61 68
-7.200589 4.282758 12.414113 52 70 77
-7.393720 3.379997 12.751139 136 155 163
-7.393463 3.379125 12.766491 134 152 159
-7.182807 4.281267 12.452660 48 74 81
-7.078467 4.396237 12.314202 105 124 129
-6.968358 4.327009 12.403767 39 64 74
-6.968358 4.327009 12.403767 39 64 74
-7.461026 2.708547 13.286665 85 107 113
-6.974228 4.289948 12.424662 34 63 72
-7.052263 4.076244 12.586218 126 140 146
-7.015409 4.406616 12.511601 51 78 88
-6.629860 5.543091 11.822393 52 78 85
-3.724013 -2.051767 6.594508 54 80 86
-7.399443 2.758045 13.318308 151 167 173
-7.392766 2.756491 13.306391 151 167 173
-7.384436 2.739200 13.309366 35 52 61
-7.331476 2.777116 13.223225 142 156 162
-7.352575 2.743041 13.303569 58 77 84
-2.374403 1.803264 4.319607 90 114 120
-3.056316 2.093952 5.591243 53 78 82
-3.199756 1.738825 5.924653 85 114 119
-2.098522 0.070053 3.854723 150 168 175
-3.812498 1.566235 7.101331 58 80 85
-3.802149 -1.408787 7.354028 70 96 102
-3.775837 -1.395181 7.346128 78 107 114
-3.039449 -2.468091 5.957909 159 174 177
-2.506529 2.971339 5.043790 82 110 117
-2.557150 2.798222 5.183166 97 119 125
-2.937509 1.892711 5.980580 109 132 134
-2.806411 2.185094 5.714064 114 134 139
-2.742898 2.339514 5.590979 114 132 133
-2.732753 2.691512 5.609351 119 137 144
-2.686434 2.408918 5.533996 117 136 141
-2.773237 2.202613 5.712405 43 67 73
-2.574992 3.002713 5.305394 102 124 129
-3.316708 -1.748362 6.862432 70 102 108
-2.769120 2.181045 5.728303 47 70 72
-3.135544 1.361007 6.543888 107 133 139
-2.752088 2.180546 5.754305 90 120 125
-3.124099 1.307629 6.542464 114 141 145
-2.885718 1.852575 6.046137 120 149 156
-2.999658 1.569230 6.290476 122 144 149
-2.998986 1.569263 6.290441 122 144 149
-2.510873 2.710208 5.258744 127 142 145
-2.886576 1.844361 6.060165 115 144 149
-2.745511 2.151553 5.761123 128 148 153
-2.647497 2.368612 5.570745 120 141 143
-2.862077 1.922328 6.028130 97 124 128
-2.661983 2.679161 5.608394 25 41 47
-2.874577 1.809061 6.066519 39 64 68
-2.731000 2.229985 5.767575 89 113 119
-2.600577 2.532673 5.498518 95 117 122
-2.731068 2.149485 5.780600 122 141 144
-3.123696 1.248521 6.622301 32 58 64
-2.972503 1.666241 6.300980 46 70 76
-3.122053 1.215989 6.624715 38 62 68
-2.596336 2.462092 5.501243 66 95 100
-3.093310 1.269410 6.585308 89 118 122
-2.621621 2.391025 5.595950 45 64 71
-2.699087 2.158623 5.771703 74 97 99
-2.947911 1.652051 6.311980 118 140 145
-2.944095 1.637997 6.306821 127 147 152
-3.074197 1.396627 6.590117 96 123 127
-2.947030 1.671903 6.316735 104 126 131
-2.692906 2.199009 5.773758 60 85 89
-2.814692 1.934238 6.047098 105 133 140
-2.934605 1.628431 6.307691 57 82 84
-3.049789 1.339798 6.569078 65 91 97
-3.050075 1.300697 6.575955 102 132 137
-2.684299 2.163126 5.782892 57 86 91
-2.451678 2.915196 5.286326 33 49 55
-3.046876 1.289942 6.590876 99 128 133
-2.810785 1.859300 6.074477 41 70 79
-2.359484 -3.056180 5.070617 102 126 132
-2.556673 2.513891 5.524665 108 132 138
-2.556673 2.513891 5.524665 108 132 138
-2.550124 2.539209 5.513014 84 108 114
-2.927350 1.573038 6.344201 99 125 131
-2.421170 2.850720 5.247474 82 104 110
-2.670558 2.159782 5.794427 114 138 144
-2.909581 1.637011 6.327487 55 84 91
-2.799672 1.979426 6.094601 52 74 80
-2.538762 2.454691 5.533306 108 132 138
-2.426315 2.891403 5.287087 58 77 80
-2.661937 2.141410 5.808960 107 132 136
-3.370986 -1.258921 7.396758 129 158 165
-2.673865 2.129752 5.855623 49 73 79
-3.358567 -1.265493 7.415169 37 69 75
-3.350903 -1.276227 7.398900 131 157 163
-2.503288 2.497715 5.526736 117 143 149
-3.341048 -1.277646 7.408898 63 97 103
-2.377985 2.838661 5.259825 107 129 135
-2.375671 2.803870 5.277740 105 131 138
-1.724527 0.128956 3.818265 107 128 136
-1.810593 -0.159226 4.026117 53 75 86
-2.466786 -2.733304 5.555066 66 102 108
-2.644738 1.917209 6.022403 123 145 150
-1.670165 0.353352 3.828362 156 174 181
-2.561506 1.945312 5.986819 80 114 120
-2.561506 1.945312 5.986819 80 114 120
-3.138447 -1.261174 7.367656 131 160 165
-2.234454 2.816569 5.231596 117 136 141
-2.234454 2.816569 5.231596 117 136 141
-2.421631 2.176877 5.728740 94 116 121
-2.852556 1.107052 6.802025 123 153 158
-2.852105 1.088412 6.805896 120 152 158
-2.851900 1.069365 6.815552 128 157 164
-2.847042 1.055154 6.820352 119 150 153
-2.398049 2.269013 5.736142 59 87 94
-2.398049 2.269013 5.736142 59 87 94
-2.733301 1.412846 6.549676 45 74 81
-2.611075 1.680919 6.285420 50 85 95
-2.481680 1.974049 6.021556 56 82 88
-2.501043 2.020335 6.075029 56 80 86
-2.468424 1.960673 6.026322 127 156 161
-2.471655 1.999223 6.052753 106 134 141
-2.455825 1.904204 6.027215 122 151 156
-2.445685 1.908630 6.024242 71 99 100
-2.334823 2.279803 5.769292 99 131 137
-2.440580 1.889281 6.040570 55 81 87
-2.433946 1.915076 6.032361 63 92 97
-2.444158 2.005185 6.065869 52 78 85
-2.444158 2.005185 6.065869 52 78 85
-1.511331 0.353895 3.728100 148 172 178
-2.318336 2.215389 5.770392 61 88 92
-2.318336 2.215389 5.770392 61 88 92
-2.106823 2.920695 5.254815 51 73 78
-2.535211 -2.119527 6.335211 67 99 105
-2.216774 2.624325 5.549054 31 56 60
-2.195953 2.497027 5.497243 104 130 136
-1.503850 0.364725 3.735050 61 90 99
-2.306781 2.302546 5.799493 54 83 90
-2.184247 2.497222 5.492483 41 67 73
-2.184247 2.497222 5.492483 41 67 73
-2.435725 -2.258601 6.128208 174 191 194
-1.512132 0.470154 3.780613 98 120 131
-2.065451 2.876831 5.226062 107 129 135
-2.056299 2.827682 5.223037 110 132 138
-1.466340 0.303652 3.712863 92 124 137
-1.459984 0.307155 3.715403 131 159 166
-1.450484 0.283618 3.711295 73 105 118
-1.450484 0.283618 3.711295 73 105 118
-2.211794 2.229868 5.735050 82 114 119
-1.443168 0.284918 3.713657 136 163 173
-1.455121 0.318993 3.742053 72 106 119
-1.439551 0.098704 3.709934 89 125 133
-1.439551 0.098704 3.709934 89 125 133
-2.089780 2.496748 5.506816 60 89 94
-1.408351 0.138019 3.698727 156 178 184
-1.419817 0.315525 3.737522 160 181 189
-1.917188 -2.999466 5.079158 69 98 105
-1.400787 0.225209 3.708615 156 178 184
-1.403277 0.271430 3.717035 156 178 184
-1.419678 -0.029280 3.771313 118 146 153
-1.946259 2.822815 5.235306 63 93 98
-1.392699 0.371519 3.717901 155 177 183
-1.410019 -0.073842 3.770748 143 167 173
-1.404938 -0.090582 3.767831 70 97 107
-1.385702 0.034658 3.721665 65 92 102
-1.436773 0.566024 3.876738 71 104 113
-1.402704 0.506430 3.792677 153 176 184
-1.381165 -0.102050 3.807054 62 85 93
-1.393848 -0.239844 3.865267 62 91 100
-1.349238 0.529627 3.780183 92 121 130
-1.297702 0.091066 3.640625 104 132 143
-1.297702 0.091066 3.640625 104 132 143
-1.277258 0.057363 3.628439 112 135 143
-1.245639 0.354573 3.577392 78 113 123
-1.348882 -0.169417 3.881488 38 56 63
-1.302823 0.503651 3.755327 82 117 127
-1.302823 0.503651 3.755327 82 117 127
-1.264293 0.415236 3.665400 78 108 119
-2.018457 1.963136 5.980154 118 143 147
-1.263214 0.468260 3.705549 77 111 124
-1.250049 0.496787 3.704224 162 183 191
-1.241936 0.521648 3.708904 54 86 99
-1.241936 0.521648 3.708904 54 86 99
-1.241936 0.521648 3.708904 54 86 99
-1.721593 2.966314 5.241296 95 120 124
-1.228861 0.554816 3.729360 69 97 108
-1.203815 0.448141 3.670379 161 182 190
-1.165334 0.302395 3.563546 152 175 183
-2.066765 -1.842184 6.564887 89 116 120
-1.110309 0.253942 3.518294 110 137 147
-1.103037 0.404253 3.591759 60 92 105
-1.103037 0.404253 3.591759 60 92 105
-1.103037 0.404253 3.591759 60 92 105
-1.007429 -0.129140 3.313670 148 167 174
-1.105287 0.493653 3.662909 89 115 127
-1.128947 0.583880 3.778112 89 121 132
-1.069030 0.503324 3.663728 91 117 129
-0.974991 -0.197886 3.334868 120 146 153
-1.679079 1.600748 5.861724 114 135 137
-1.684827 1.603292 5.886160 112 133 135
-1.370914 -2.992170 4.973676 96 124 131
-1.363228 -2.989024 4.965816 99 128 133
-1.476403 -2.655903 5.460564 151 173 178
-1.450261 -2.709696 5.395518 60 93 102
-0.960110 0.532619 3.658651 98 124 138
-0.960110 0.532619 3.658651 98 124 138
-1.375510 2.252220 5.303915 116 135 138
-1.499682 -2.330911 5.887866 187 199 199
-1.499475 -2.330681 5.887453 187 199 199
-1.495764 -2.317182 5.895430 152 172 173
-0.892242 0.742136 3.872043 106 125 133
-0.697083 0.205461 3.188499 75 113 125
-0.685930 -0.056578 3.145795 67 94 104
-0.704516 0.738452 3.461574 92 120 131
-0.687238 0.748796 3.466864 134 163 168
-0.698999 0.849103 3.557812 144 166 171
-0.671766 0.750384 3.468944 58 89 104
-0.610912 0.247567 3.219000 53 85 96
-0.597987 0.013227 3.173741 79 114 124
-0.654211 0.795642 3.516449 66 105 114
-0.648362 0.907710 3.525845 45 79 92
-0.665741 -0.600871 3.652093 44 70 82
-0.584590 0.084810 3.197973 75 110 124
-0.650557 0.836595 3.573566 41 69 80
-0.577608 0.167138 3.159959 142 175 184
-0.578270 0.127581 3.188168 87 121 134
-0.642513 -0.687592 3.561730 150 171 179
-0.656570 -0.624500 3.653838 68 96 107
-1.032664 -2.354022 5.833323 139 166 170
-0.636080 0.842839 3.567671 143 166 174
-0.652798 -0.599935 3.656884 123 149 156
-1.016667 -2.543392 5.927134 36 55 60
-0.554678 0.415468 3.218480 109 142 151
-0.557705 0.314584 3.283854 37 59 65
-0.968740 -2.271683 5.765212 34 50 56
-0.530738 0.213564 3.168381 90 120 131
-0.526711 0.689923 3.320155 67 96 105
-0.486775 -0.292043 3.060940 108 126 133
-0.517703 0.331274 3.290457 116 150 156
-0.563034 -0.784465 3.668065 47 75 86
-0.557238 -0.770920 3.675986 50 79 88
-0.556826 -0.873503 3.682622 36 55 62
-0.514925 0.793891 3.415187 124 147 155
-0.547026 -0.766213 3.675671 129 160 163
-0.535490 -0.751637 3.681103 123 151 158
-0.442809 -0.099681 3.076311 111 129 136
-0.462656 0.741131 3.328173 130 156 162
-0.461809 0.755113 3.332367 81 109 120
-0.455817 0.756123 3.330708 132 158 165
-0.405236 -0.215950 3.026053 104 122 129
-0.438823 0.819649 3.369885 61 89 100
-0.587089 -2.843379 4.901752 12 22 29
-0.433887 1.015760 3.626952 97 128 137
-0.365261 -0.082395 3.039718 114 133 140
-0.582695 -2.837586 4.913920 38 66 73
-0.582689 -2.825634 4.932687 33 68 81
-0.584643 -2.779556 5.008995 26 58 69
-0.584973 -2.755468 5.040962 137 166 173
-0.414722 -0.965741 3.621274 114 130 136
-0.392191 -0.783939 3.472757 84 113 122
-0.385134 -0.773126 3.487109 70 98 109
-0.397924 0.968630 3.643194 102 132 137
-0.593928 -2.365648 5.577156 42 74 85
-0.390398 0.941898 3.646131 90 119 126
-0.375136 -0.776125 3.489422 131 154 162
-0.375136 -0.776125 3.489422 131 154 162
-0.367853 -0.778570 3.495658 89 117 124
-0.348875 -0.790716 3.480138 60 92 103
-0.291170 -0.387162 2.943735 101 121 126
-0.341379 -0.787344 3.484642 129 155 161
-0.316062 0.739490 3.454275 37 60 68
-0.319163 -0.803087 3.466039 101 126 136
-0.302856 -0.812207 3.452088 92 121 128
-0.270230 0.678789 3.348909 73 105 116
-0.256971 0.282991 3.265365 59 83 89
-0.266861 -1.038247 3.465143 86 105 110
-0.262507 -0.825022 3.425269 89 115 127
-0.224568 -0.084220 3.001032 119 140 148
-0.253911 -0.830712 3.409833 76 111 121
-0.246700 -1.069751 3.453475 102 121 126
-0.354892 -2.529702 5.449159 142 154 156
-0.350177 -2.524242 5.454981 122 130 129
-0.350177 -2.524242 5.454981 122 130 129
-0.200536 -0.862025 3.355366 153 172 179
-0.184837 0.187337 3.221832 38 66 73
-0.184837 0.187337 3.221832 38 66 73
-0.190627 -0.876135 3.331967 151 173 178
-0.153717 0.784292 3.432308 132 158 165
-0.100294 -0.384406 2.875745 101 120 127
-0.090285 -0.337498 2.877173 108 126 133
-0.074892 0.726606 3.400689 75 110 123
-0.060437 -0.510369 2.800290 88 110 116
-0.046563 -0.278676 2.808580 74 104 115
-0.044883 -1.204599 3.338587 129 149 154
0.019198 -0.610698 2.788369 138 158 163
0.025171 -0.604042 2.782792 84 102 109
0.044618 -1.245549 3.476595 94 120 126
0.047406 0.455848 3.329636 123 152 159
0.054012 0.492544 3.268179 84 113 122
0.050719 0.896422 3.066814 147 172 176
0.067219 0.441582 3.325767 143 165 171
0.074215 0.449479 3.309051 83 113 124
0.091550 0.440845 3.311377 142 168 174
0.096531 0.450580 3.298307 77 109 120
0.084613 -0.667701 2.806723 50 69 74
0.086498 -0.424284 2.798800 74 97 105
0.112617 -1.190122 3.397506 139 161 166
0.112617 -1.190122 3.397506 139 161 166
0.119254 -1.182261 3.395856 67 96 105
0.110814 0.654825 3.090674 97 118 126
0.110814 0.654825 3.090674 97 118 126
0.150787 0.879313 3.103738 43 65 76
0.155138 -0.275016 2.820160 133 157 163
0.161216 -0.463065 2.795882 83 112 117
0.161216 -0.463065 2.795882 83 112 117
0.169207 -0.331938 2.813966 62 88 95
0.178048 -0.048422 2.931198 143 164 172
0.178048 -0.048422 2.931198 143 164 172
0.178946 -0.331581 2.815727 148 170 176
0.192529 -0.008407 2.981126 79 111 124
0.219140 -1.061087 3.404549 99 123 129
0.219140 -1.061087 3.404549 99 123 129
0.213203 -0.385109 2.808018 75 97 102
0.213203 -0.385109 2.808018 75 97 102
0.213386 -0.575676 2.806355 54 76 81
0.220847 -0.415778 2.808423 56 78 84
0.241012 0.523622 3.032037 94 116 127
0.250484 -0.008894 2.966026 79 112 121
0.281468 0.082538 3.098786 75 101 113
0.276580 0.605075 2.916549 83 116 131
0.276580 0.605075 2.916549 83 116 131
0.285737 0.690307 2.934354 143 172 179
0.309167 0.903534 3.107857 147 175 182
0.338538 -1.226005 3.382542 23 35 37
0.238311 -0.974574 2.372830 1 20 25
0.310432 0.223234 3.058591 75 105 116
0.379696 -1.824174 3.762807 89 112 114
0.487020 -2.728833 4.810802 27 31 36
0.338372 -1.402817 3.344227 26 43 46
0.489563 -2.734323 4.802852 143 161 168
0.267001 -1.158262 2.612936 15 35 40
0.513466 -2.597288 4.932362 126 148 153
0.516815 -2.600842 4.926846 60 82 88
0.360897 -1.104619 3.333573 99 123 129
0.519603 -2.700850 4.773351 7 23 29
0.370182 -0.986610 3.379320 82 108 115
0.370620 -1.223243 3.386669 16 29 31
0.515379 -2.752997 4.697365 28 42 48
0.325777 0.643655 2.928197 68 106 118
0.315795 -0.457731 2.834463 49 66 69
0.579734 -2.509150 5.187035 1 6 9
0.584083 -2.512668 5.175138 53 65 69
0.335930 0.647913 2.930406 108 144 152
0.349983 0.829273 3.035183 118 146 153
0.592573 -2.499961 5.188924 54 71 74
0.595800 -2.508139 5.182884 2 10 10
0.366754 -1.177020 3.123493 104 119 121
0.357682 0.158820 3.036663 88 115 129
0.348284 0.698653 2.944989 52 83 92
0.405504 -0.844197 3.388333 62 87 97
0.366176 0.477178 3.024846 82 108 115
0.366176 0.477178 3.024846 82 108 115
0.407119 -1.217868 3.361188 11 13 13
0.371429 0.217773 3.053421 74 108 121
0.631774 -2.466453 5.187522 30 53 61
0.414972 -0.868175 3.383099 72 91 99
0.632029 -2.490470 5.153763 54 73 78
0.632029 -2.490470 5.153763 54 73 78
0.636002 -2.495968 5.145601 111 129 130
0.378835 0.813154 3.024458 79 110 119
0.372480 0.724860 2.962090 113 142 147
0.375658 0.706999 2.969893 57 84 88
0.617540 -2.643256 4.933801 75 97 103
0.376217 0.654394 2.956046 109 146 154
0.612560 -2.720831 4.823436 91 108 111
0.615830 -2.748181 4.775977 74 93 96
0.399390 0.794790 3.011411 67 103 113
0.394577 0.707030 2.956157 120 153 162
0.394577 0.707030 2.956157 120 153 162
0.401578 0.619067 2.986953 63 89 96
0.402660 0.667894 2.966535 72 108 118
0.409425 0.797766 3.013506 143 169 175
0.464438 -1.207143 3.356848 25 47 53
0.712882 -2.519484 5.129127 114 133 138
0.472438 -0.959513 3.336724 71 99 106
0.440489 0.263996 3.100387 124 146 151
0.430106 0.145282 3.017213 86 114 125
0.723734 -2.549856 5.080896 120 147 151
0.450861 0.259912 3.093557 128 154 160
0.482455 0.248253 3.090108 118 144 150
0.526251 -0.795835 3.352549 89 115 122
0.526251 -0.795835 3.352549 89 115 122
0.467896 -0.038080 2.955741 104 132 139
0.535420 -0.709119 3.350888 84 115 124
0.497113 0.260928 3.103291 102 129 133
0.495828 0.235237 3.083635 113 137 143
0.496933 0.138556 3.024709 60 86 93
0.548885 -0.833573 3.336895 91 117 124
0.503506 0.482023 2.962152 89 120 129
0.585485 -0.666742 3.335727 72 100 111
0.585485 -0.666742 3.335727 72 100 111
0.586319 -0.678837 3.337118 67 99 110
0.594756 -0.673887 3.335130 59 91 104
0.538751 0.144976 3.004882 65 99 112
0.951089 -2.560637 5.249318 99 132 141
0.947905 -2.561732 5.226494 98 134 142
0.535483 0.322118 2.891524 101 128 138
0.611728 -0.894466 3.288515 68 91 99
0.611728 -0.894466 3.288515 68 91 99
0.626281 -0.867607 3.288558 87 111 117
0.653694 -0.678635 3.323036 82 113 122
0.585514 0.491425 2.952853 86 117 126
0.679331 -0.629086 3.315038 87 118 127
0.608713 0.403040 2.879860 81 112 121
0.699807 -0.655894 3.312329 91 120 129
0.699807 -0.655894 3.312329 91 120 129
0.646640 -0.062479 3.012600 77 106 115
0.709133 -0.661673 3.306682 87 118 127
0.662400 0.022078 3.055975 68 103 113
0.662400 0.022078 3.055975 68 103 113
0.665419 0.002188 3.045378 65 99 112
0.665419 0.002188 3.045378 65 99 112
0.728058 -0.597879 3.304251 87 114 124
0.728058 -0.597879 3.304251 87 114 124
0.700279 0.023905 3.051472 67 98 113
0.714576 0.023720 3.046518 76 105 119
0.714576 0.023720 3.046518 76 105 119
0.651506 0.259612 2.762151 123 149 155
0.771653 -0.686237 3.276747 84 114 125
0.771653 -0.686237 3.276747 84 114 125
0.657782 0.312673 2.771322 86 118 124
0.657320 0.280738 2.761100 133 157 163
0.665184 0.260625 2.763702 47 75 82
0.668176 0.240129 2.768422 127 154 158
0.698648 0.489450 2.881106 89 118 125
0.706703 0.492509 2.880832 92 121 128
0.688634 0.318917 2.781799 74 108 121
0.811427 -0.628945 3.277569 82 113 122
0.811427 -0.628945 3.277569 82 113 122
0.812581 -0.640509 3.273064 97 125 132
0.813624 -0.634389 3.273098 142 166 172
0.693579 0.308537 2.775894 54 88 101
0.819049 -0.630786 3.272013 92 121 128
0.819049 -0.630786 3.272013 92 121 128
0.816128 -0.715469 3.252572 55 84 93
0.830099 -0.661165 3.256601 126 153 163
0.831847 -0.634656 3.262795 78 107 116
0.707990 0.312158 2.758127 152 171 178
0.834621 -0.608385 3.265199 64 90 97
0.713279 0.238969 2.761016 132 155 163
0.856677 -0.566714 3.233265 126 154 161
0.863162 -0.530164 3.235433 77 103 110
0.865072 -0.545259 3.240663 93 118 128
0.897102 -0.462749 3.209348 120 148 155
0.932959 -0.802850 3.321859 122 148 155
0.910570 -0.320076 3.216163 112 141 150
0.910570 -0.320076 3.216163 112 141 150
0.973319 -0.611823 3.350701 40 69 78
0.946984 -0.391041 3.193987 110 138 145
0.949947 -0.403305 3.197318 57 78 86
0.949947 -0.403305 3.197318 57 78 86
0.954995 -0.335278 3.205895 113 142 147
0.968261 -0.416198 3.187235 118 147 154
0.977976 -0.317672 3.194715 107 136 141
1.019893 -0.684537 3.328835 113 137 143
0.978087 -0.082956 3.171851 71 100 114
0.993766 -0.394610 3.209406 111 136 140
0.950411 -0.435335 3.058143 60 87 97
0.990638 -0.183804 3.175528 70 100 111
1.027048 -0.348428 3.262449 27 39 43
0.999280 -0.184746 3.173460 64 92 103
1.001040 -0.059800 3.161161 61 92 107
1.001040 -0.059800 3.161161 61 92 107
1.001040 -0.059800 3.161161 61 92 107
1.001631 -0.534992 3.070706 48 73 83
1.013619 -0.380384 3.073597 144 168 174
1.093472 0.046314 3.258190 99 128 135
1.042380 -0.373161 3.073381 118 146 153
1.048430 -0.369966 3.085549 57 84 94
1.093022 0.211988 3.216217 31 56 66
1.095562 0.190372 3.222026 38 62 68
1.100538 -0.282434 3.224470 37 63 70
1.099614 0.196048 3.218984 56 81 91
1.119763 -0.670057 3.227504 57 86 95
1.072872 -0.441431 3.072482 59 97 115
1.139001 -0.176905 3.231757 73 103 114
1.133830 0.155329 3.185261 122 151 156
1.180788 -0.101152 3.309432 41 55 61
1.184083 -0.109825 3.299386 26 42 48
1.155122 -0.252738 3.211033 60 88 99
1.164457 -0.177671 3.230613 53 83 94
1.114173 -0.362789 3.087241 132 160 167
1.193870 -0.114153 3.306958 28 48 53
1.207491 -0.127263 3.295255 51 77 89
1.199507 -0.665664 3.205196 54 80 92
1.215593 -0.210072 3.248793 54 82 93
1.187998 -0.316673 3.146376 78 104 110
1.163630 -0.412246 3.074134 126 154 161
1.184945 -0.348757 3.130352 45 69 75
1.190220 -0.355543 3.121779 57 82 86
1.240616 -0.239458 3.250468 108 137 146
1.193634 -0.364720 3.117414 44 63 68
1.191080 -0.383837 3.106994 34 58 64
1.202741 -0.361891 3.102430 137 154 157
1.208936 -0.374552 3.098085 53 72 80
1.234950 -0.498811 3.073356 89 108 115
1.237805 -0.508300 3.037651 98 120 126
1.235474 -0.510392 3.018846 89 115 122
2.157398 -2.394742 5.295499 50 74 80
2.157398 -2.394742 5.295499 50 74 80
1.281596 -0.468965 3.046736 97 119 125
1.319245 -0.130070 3.080040 89 108 116
1.324962 -0.100810 3.085978 146 165 172
1.322793 -0.128302 3.073561 163 177 183
1.281800 -0.235838 2.953594 93 120 130
1.291461 -0.222791 2.959982 137 164 174
1.310060 -0.209969 2.984326 50 68 75
1.292722 -0.276829 2.937111 51 70 78
1.357910 -0.083801 3.086478 71 100 109
1.357910 -0.083801 3.086478 71 100 109
1.301087 -0.224365 2.952994 51 77 89
1.361988 -0.180935 3.042807 43 61 68
1.368697 -0.168608 3.052326 145 162 165
1.325583 -0.302065 2.939719 109 131 136
1.378464 -0.156610 3.059620 129 148 153
1.357194 -0.225385 3.006853 66 92 98
1.413240 -0.104061 3.128483 58 88 99
2.457413 -2.126557 5.484214 103 122 125
1.325665 -0.421124 2.916299 97 118 126
1.321833 -0.433705 2.902768 138 161 169
1.378684 -0.175730 3.027030 124 143 148
1.337025 -0.302549 2.928419 130 148 155
1.356071 -0.287766 2.961446 35 52 55
1.382880 -0.238625 3.011527 34 50 56
1.375279 -0.255703 2.990497 115 134 139
1.388695 -0.182549 3.017282 80 99 104
2.435005 -2.245754 5.340936 49 66 69
1.380450 -0.252623 2.981966 62 86 92
1.341127 -0.486941 2.890732 69 95 107
2.299764 -2.569934 5.010769 48 66 73
1.393563 -0.210278 3.003818 72 88 94
1.410620 -0.104680 3.039439 154 172 179
1.350635 -0.422403 2.902986 70 91 99
1.350320 -0.431583 2.900910 80 107 117
1.387375 -0.265222 2.978901 116 136 141
1.354479 -0.473790 2.903206 85 111 118
1.397268 -0.222221 2.998344 128 144 150
2.336585 -2.220814 5.056747 45 63 64
1.353947 -0.427439 2.899129 128 150 156
1.352222 -0.479501 2.894011 138 157 162
1.391601 -0.238070 2.981463 54 78 84
1.399248 -0.227219 2.997499 56 72 78
1.371808 -0.330807 2.933045 130 152 157
1.358102 -0.471472 2.902217 155 174 179
1.389092 0.201907 2.968536 68 103 113
1.398105 -0.227995 2.982344 79 98 103
1.401763 -0.221781 2.990016 77 91 97
1.401325 -0.214233 2.976413 141 156 159
2.397711 -2.366488 5.138636 56 68 72
1.404838 -0.226625 2.977600 81 95 101
1.379064 -0.434548 2.912941 41 67 74
1.405539 -0.194052 2.969133 92 114 120
1.353332 -0.579740 2.851462 89 116 126
1.382638 0.071963 2.916111 80 103 111
1.382638 0.071963 2.916111 80 103 111
1.420946 -0.401136 2.997897 56 74 81
1.405200 -0.238181 2.962429 99 118 126
1.405935 -0.056755 2.957009 87 113 120
1.374801 -0.518472 2.880982 61 88 98
1.410945 -0.182032 2.952792 96 115 123
1.378772 -0.516228 2.882212 120 139 147
1.399035 0.155840 2.924678 113 142 151
1.412095 -0.252757 2.949759 146 162 168
1.377941 -0.473323 2.870236 80 102 114
1.446815 -0.365551 3.011558 59 81 87
1.417968 -0.059100 2.943806 137 157 162
1.432245 -0.134019 2.971404 142 158 164
1.444428 -0.405752 2.984804 45 61 68
1.444428 -0.405752 2.984804 45 61 68
1.424607 -0.041528 2.942709 133 152 157
2.382873 -2.514615 4.969481 51 63 67
1.428745 0.177183 2.950029 59 90 99
1.424945 0.153123 2.937109 48 71 79
1.405536 -0.519363 2.894972 115 141 147
1.406260 -0.504561 2.896340 121 143 149
1.432860 -0.061780 2.946472 106 135 144
1.416925 0.281070 2.912681 82 107 117
1.462807 -0.356354 3.007763 57 81 87
1.452680 -0.392781 2.985746 56 76 81
1.411041 0.075810 2.898128 94 113 121
1.431781 -0.108080 2.937586 136 155 160
2.378069 -2.539512 4.927104 54 71 74
2.391481 -2.530478 4.955366 107 128 130
1.412230 -0.528178 2.888061 115 139 145
1.460443 -0.387330 2.982854 134 153 160
1.390808 -0.555523 2.834340 73 100 110
1.468978 -0.363162 2.996750 65 87 93
1.440075 -0.129920 2.931997 152 172 177
1.449795 -0.311132 2.950486 77 96 103
1.426610 -0.505786 2.901876 119 141 147
1.422283 -0.525512 2.889227 67 95 102
1.447235 -0.111747 2.940973 125 149 155
1.465412 -0.392831 2.976542 126 144 151
1.440102 -0.208829 2.923466 102 118 124
1.462363 -0.409371 2.965260 64 83 91
1.430424 -0.513620 2.899372 77 103 110
1.447000 -0.279486 2.931316 133 149 155
1.449391 -0.126160 2.936715 65 99 112
1.454240 -0.105098 2.944768 61 93 104
1.436080 -0.502831 2.904663 58 89 98
1.466212 -0.071037 2.963417 108 141 150
1.405214 0.380363 2.832036 94 115 123
1.486199 -0.351341 2.996274 53 75 80
1.435099 -0.524552 2.887543 131 150 157
1.469049 -0.081689 2.958095 109 137 144
1.462422 -0.117755 2.938782 115 138 146
2.318386 -2.701057 4.698894 54 66 70
1.453561 -0.490686 2.915101 33 54 62
2.288318 -2.566960 4.623289 46 62 68
1.453556 -0.198149 2.908528 96 118 129
1.453556 -0.198149 2.908528 96 118 129
1.458591 -0.489501 2.911197 47 72 82
1.475957 -0.105686 2.938667 56 80 86
1.492820 -0.073479 2.961854 60 86 93
1.461125 -0.446532 2.894399 59 85 97
1.460270 -0.522510 2.893648 74 102 109
1.505620 -0.343376 2.985347 120 140 145
1.454489 -0.539052 2.880923 60 84 96
1.469552 -0.439374 2.904958 51 76 86
1.466275 -0.218650 2.897885 102 125 133
1.466275 -0.218650 2.897885 102 125 133
1.469879 -0.454022 2.902518 41 67 74
1.473855 -0.510511 2.900236 60 86 98
1.478192 -0.459390 2.908482 121 141 146
1.508141 -0.376336 2.953135 131 149 156
1.519155 -0.394824 2.960859 59 81 87
1.521124 -0.350286 2.964099 110 129 134
1.504023 -0.165152 2.905563 141 163 169
1.489536 -0.538593 2.873562 82 104 115
1.542538 -0.122460 2.966185 42 62 73
1.547198 -0.349661 2.973959 32 54 60
1.504920 -0.524762 2.882949 69 94 104
1.500185 -0.535081 2.871002 134 152 159
1.551700 -0.348056 2.972215 134 153 158
1.551031 -0.334229 2.968503 80 101 109
1.499353 -0.545862 2.864242 73 95 106
1.507228 -0.532432 2.878630 43 70 84
1.527134 -0.160016 2.914639 133 151 158
1.441269 0.458365 2.737113 79 104 120
1.516233 -0.533969 2.881496 125 151 158
1.506857 -0.546841 2.862332 68 96 107
1.518747 -0.536868 2.876013 116 138 143
1.447466 0.483195 2.738156 92 115 123
1.447466 0.483195 2.738156 92 115 123
1.568362 -0.131604 2.954645 129 148 155
1.456704 0.467510 2.734761 75 101 115
1.456704 0.467510 2.734761 75 101 115
1.525589 -0.549893 2.865006 59 85 92
1.571587 -0.109144 2.954085 89 109 120
1.543917 -0.538024 2.889554 48 70 81
1.483492 0.433477 2.741769 125 144 151
1.499405 0.405365 2.751078 65 91 103
1.562735 -0.252568 2.865345 135 157 162
1.508281 0.399556 2.752314 78 103 113
1.500234 0.446036 2.734127 129 151 157
1.619162 -0.131664 2.943554 47 67 78
1.618841 -0.123409 2.941696 134 153 158
1.613537 -0.091071 2.928989 80 104 116
1.623133 -0.064525 2.947207 67 94 108
1.520110 0.433128 2.741153 70 94 112
1.520110 0.433128 2.741153 70 94 112
1.629780 -0.069217 2.935500 133 155 160
1.635105 -0.131082 2.943165 57 76 84
1.633318 -0.070611 2.928622 86 108 119
1.629926 -0.087807 2.922639 55 75 86
1.526704 0.459622 2.729653 74 101 115
1.535009 0.423909 2.742182 68 91 107
1.573909 0.252579 2.799102 81 102 110
1.573909 0.252579 2.799102 81 102 110
1.656459 -0.054931 2.933502 148 164 170
2.580229 -2.731806 4.583094 31 43 47
1.700506 -0.221928 2.984251 39 58 63
1.703033 -0.160005 2.984033 24 36 38
1.697059 -0.004294 2.968390 115 137 143
1.704304 -0.155429 2.976416 44 57 59
1.577117 0.405569 2.746211 72 98 112
1.574449 0.422433 2.739844 82 103 118
1.574449 0.422433 2.739844 82 103 118
1.568388 0.447821 2.729533 71 99 110
1.692128 -0.021867 2.949778 136 155 162
1.682158 -0.055016 2.926579 124 146 152
1.700537 -0.010941 2.956268 34 48 54
1.700537 -0.010941 2.956268 34 48 54
1.598468 0.360170 2.763186 62 88 100
1.698416 -0.038699 2.940499 75 99 105
1.705197 -0.029892 2.951268 30 46 52
1.712872 -0.007795 2.964259 113 133 138
1.585676 0.516010 2.730767 82 106 118
1.709104 -0.146182 2.946110 137 156 161
1.589890 0.435819 2.733456 133 157 163
1.697012 -0.067366 2.922256 37 49 55
1.708577 -0.031550 2.938274 126 141 143
1.598019 0.427056 2.740573 74 101 115
1.701689 -0.039061 2.914542 137 152 155
1.629312 0.391532 2.748823 80 106 118
1.686668 0.200988 2.810969 135 157 163
1.684865 0.214526 2.806575 123 152 161
1.684923 0.224886 2.804697 122 153 162
1.684493 0.253405 2.793256 123 154 163
1.691347 0.295483 2.782648 108 136 147
1.654722 0.464594 2.719455 72 86 92
1.692381 0.366568 2.753766 128 152 158
1.687148 0.425367 2.731409 125 151 158
1.688096 0.441636 2.724526 116 140 146
1.699592 0.451222 2.725869 31 55 67
1.699843 0.509230 2.716821 30 54 66
1.705027 0.487665 2.710179 125 150 154
2.552829 -2.350999 4.061604 32 38 43
1.805362 -0.061634 2.800841 142 159 162
1.827559 -0.054917 2.815277 23 47 53
1.828816 -0.063072 2.810241 52 88 96
1.828987 -0.070057 2.806040 67 103 109
1.833492 -0.059041 2.808926 151 166 168
1.822505 -0.091373 2.777089 75 106 115
1.806718 -0.132255 2.729064 64 89 99
1.806718 -0.132255 2.729064 64 89 99
1.822636 -0.119825 2.740233 150 166 172
1.819505 -0.139894 2.722307 147 166 169
1.810660 -0.165951 2.696407 65 94 101
1.809506 -0.188450 2.675004 78 106 113
1.689302 0.501871 2.475299 98 124 131
1.798448 -0.230102 2.625622 83 107 113
1.799953 -0.232685 2.624252 68 97 102
1.745836 0.607642 2.541453 93 117 123
1.745836 0.607642 2.541453 93 117 123
1.719250 0.501601 2.438389 101 119 126
1.709640 0.413305 2.380164 100 120 131
1.839445 0.669062 2.545812 133 157 163
1.833678 0.618164 2.496976 151 162 166
2.102050 -0.060974 2.765975 90 113 121
1.811095 0.458403 2.344427 57 79 85
2.141417 -0.053889 2.767723 99 118 125
2.148566 -0.065861 2.754812 97 118 126
2.148566 -0.065861 2.754812 97 118 126
1.948755 0.617344 2.478113 131 148 151
2.163203 -0.078735 2.738878 101 119 126
2.210185 -0.041037 2.775691 83 106 114
2.231804 -0.034664 2.778881 137 157 162
1.957596 0.504372 2.364239 73 92 100
1.966843 0.496704 2.355438 129 146 149
2.250357 -0.127493 2.674950 89 105 112
2.362707 -0.086905 2.707603 92 110 117
2.131518 0.535112 2.371921 74 91 104
2.546097 -0.013575 2.763298 102 111 114
