ply
format ascii 1.0
element vertex 1249
property float x
property float y
property float z
property uchar red
property uchar green
property uchar blue
end_header
-1.229986 0.209528 3.859333 92 118 125
-1.197780 0.042585 3.779589 82 119 127
-1.938464 1.731043 6.253174 47 76 81
-1.180604 -0.014823 3.744593 140 164 170
-1.187991 0.097631 3.808521 159 180 188
-1.174889 0.161651 3.802626 50 77 87
-1.156649 0.000865 3.751372 73 107 120
-1.452884 2.193483 4.777505 107 122 125
-1.432055 2.223475 4.715724 124 140 139
-1.441443 2.205276 4.749944 108 123 125
-2.369866 1.130673 7.900549 44 61 64
-1.146812 0.024090 3.750020 161 182 190
-2.339055 1.062667 7.814036 45 70 74
-2.339055 1.062667 7.814036 45 70 74
-2.357778 1.063219 7.878500 36 64 71
-2.357778 1.063219 7.878500 36 64 71
-1.409947 2.252284 4.664734 124 141 144
-2.339836 1.179826 7.840265 93 118 122
-1.137921 0.044935 3.739035 49 82 97
-1.135141 -0.027688 3.740822 83 115 128
-2.331621 1.199616 7.855466 46 78 84
-2.352456 1.159648 7.933371 17 29 33
-1.128266 0.079195 3.747926 66 93 107
-1.124504 -0.053347 3.734537 56 88 101
-1.127236 0.142956 3.789021 72 107 117
-1.101912 -0.024005 3.725280 157 181 187
-1.116811 0.134880 3.802349 50 77 91
-1.074879 0.024150 3.718439 82 112 123
-1.990280 1.513226 7.026716 46 72 78
-1.758023 -3.241062 6.211008 106 130 136
-1.051241 -0.197423 3.663141 70 105 118
-1.717632 1.822292 6.086520 100 125 129
-1.062171 0.001990 3.707794 93 123 134
-1.062171 0.001990 3.707794 93 123 134
-1.048666 -0.174821 3.671911 152 176 182
-1.054814 0.010858 3.709617 141 167 174
-1.954889 -1.859563 7.076871 80 109 113
-1.039384 0.126229 3.791635 79 109 120
-1.034703 0.131148 3.793939 133 162 176
-1.008055 -0.006161 3.694692 84 111 125
-1.855017 -2.089015 6.945666 102 129 133
-0.968591 -0.339867 3.541580 142 166 172
-0.991893 -0.225019 3.647526 106 135 142
-0.994697 -0.082324 3.666215 61 93 106
-1.004903 0.013072 3.706374 83 111 122
-1.940896 1.413490 7.300329 41 70 74
-1.841460 -2.090533 6.938140 119 145 151
-0.939240 -0.375947 3.485428 135 161 167
-0.976672 -0.260263 3.639563 86 122 130
-0.925415 -0.413297 3.459449 148 177 184
-0.925415 -0.413297 3.459449 148 177 184
-0.925415 -0.413297 3.459449 148 177 184
-0.961203 -0.310413 3.636888 76 112 122
-0.971528 0.022874 3.704756 84 110 122
-0.949428 -0.287445 3.643357 90 122 133
-1.256043 2.294425 4.896564 39 63 69
-1.376217 2.098551 5.395449 117 142 146
-1.252520 2.287439 4.927924 48 74 80
-1.252520 2.287439 4.927924 48 74 80
-1.555439 1.796327 6.232796 47 73 79
-1.555439 1.796327 6.232796 47 73 79
-1.932377 1.189131 7.916908 89 114 118
-0.913947 -0.010946 3.676420 96 125 134
-1.528734 1.763136 6.311825 36 61 65
-1.525571 1.741679 6.337401 48 74 80
-1.831997 1.240626 7.809772 60 98 103
-1.166850 2.117527 5.268116 87 116 121
-1.453825 -2.507876 6.616361 192 207 210
-0.816470 0.059983 3.676850 90 119 134
-1.408639 -2.497396 6.617061 197 210 212
-1.306295 -2.879315 6.379947 68 102 108
-1.304536 -2.828182 6.417733 147 176 183
-1.208541 -3.252149 6.120653 103 129 136
-1.208541 -3.252149 6.120653 103 129 136
-1.121851 2.021257 5.689352 42 68 74
-1.121851 2.021257 5.689352 42 68 74
-1.196036 -3.256514 6.102863 104 130 136
-1.405819 1.433205 7.247162 47 79 85
-1.190234 -3.251350 6.110658 123 149 155
-0.665069 -0.496023 3.347588 71 100 109
-1.119445 1.951416 5.776462 138 151 153
-1.110686 1.960976 5.769293 37 57 62
-1.090493 1.959343 5.768050 45 67 72
-1.376982 1.419090 7.339403 53 85 91
-1.372291 1.397453 7.347523 76 108 113
-0.656217 0.211295 3.459188 161 181 186
-0.635327 0.262137 3.483591 82 118 126
-0.622131 0.146047 3.427930 86 114 125
-0.627384 0.273699 3.474570 145 167 172
-0.618533 0.174934 3.435705 80 113 128
-0.606983 0.156534 3.430283 134 162 169
-1.333647 1.286828 7.745074 86 116 121
-0.583309 -0.356211 3.345354 72 107 120
-0.590601 0.109886 3.418290 78 105 115
-0.581415 0.216642 3.473824 68 103 116
-0.577083 0.227346 3.499711 42 74 87
-0.577083 0.227346 3.499711 42 74 87
-0.563957 0.151618 3.441644 61 94 109
-0.559540 0.125576 3.426635 64 97 112
-0.530041 -0.126827 3.244758 60 89 98
-0.530041 -0.126827 3.244758 60 89 98
-0.546892 0.141929 3.430702 83 113 124
-0.788161 2.235059 5.068215 159 174 176
-0.537583 0.175756 3.456048 79 109 120
-0.525217 -0.384848 3.366451 68 107 116
-0.525217 -0.384848 3.366451 68 107 116
-0.771852 2.233604 5.076929 164 172 172
-0.536822 0.268220 3.509553 140 169 174
-0.529498 0.181651 3.460607 74 109 122
-0.515957 0.476704 3.391176 129 158 163
-0.507450 -0.310728 3.360685 56 88 99
-0.477842 -0.045693 3.175000 71 104 113
-0.737701 2.229233 5.098112 162 172 172
-0.737701 2.229233 5.098112 162 172 172
-0.969634 1.627610 6.775962 100 125 127
-0.969634 1.627610 6.775962 100 125 127
-0.483089 -0.003301 3.287247 67 102 112
-0.483089 -0.003301 3.287247 67 102 112
-0.943967 1.626542 6.791870 46 65 72
-0.916623 -2.445365 6.593054 113 143 148
-0.916623 -2.445365 6.593054 113 143 148
-0.902818 -2.487324 6.602148 147 173 179
-0.478804 -0.460771 3.397384 74 113 127
-0.910138 -2.426602 6.644538 147 173 179
-0.474645 -0.435769 3.384693 70 108 120
-0.940050 1.549598 6.947959 109 130 132
-0.692771 2.224714 5.111435 164 172 172
-0.816658 -3.237563 6.044361 151 173 179
-0.929108 1.543009 6.934071 41 62 64
-0.817917 -3.224034 6.063250 90 118 125
-0.678066 2.223437 5.105653 152 164 164
-0.452065 0.146753 3.330941 105 130 140
-0.733177 -1.847911 5.562031 40 60 65
-0.733177 -1.847911 5.562031 40 60 65
-0.741458 -1.881682 5.629453 38 58 63
-0.741458 -1.881682 5.629453 38 58 63
-0.665273 2.249970 5.138472 59 85 91
-0.458880 0.277954 3.499765 79 108 117
-0.655374 2.241624 5.149871 46 75 80
-0.643784 2.265763 5.068715 113 141 142
-0.658975 2.190548 5.206958 45 70 72
-0.657949 2.174741 5.233195 113 135 140
-0.653058 2.204686 5.199304 121 145 145
-0.428296 -0.348327 3.326120 86 116 127
-0.643441 2.210576 5.202819 38 64 70
-0.639365 2.184526 5.215743 62 87 89
-0.436283 0.296223 3.495352 131 159 166
-0.885992 1.479989 7.296979 47 76 83
-0.411263 0.035084 3.315949 36 55 63
-0.407230 0.156331 3.305691 92 123 132
-0.427304 0.289557 3.495807 133 157 163
-0.606316 -1.665950 5.100859 35 57 62
-0.602757 -1.715047 5.072180 68 97 102
-0.602757 -1.715047 5.072180 68 97 102
-0.563182 -1.526927 4.712184 68 97 102
-0.588159 -1.647986 4.943854 69 98 103
-0.616954 -1.786082 5.208119 69 95 101
-0.631549 -1.859290 5.348216 71 98 102
-0.417554 0.296007 3.499041 54 82 89
-0.417145 0.345117 3.497889 53 85 96
-0.666267 -2.027293 5.669707 68 97 101
-0.724938 -2.308870 6.208504 72 96 102
-0.770634 -2.529882 6.631400 68 97 102
-0.770634 -2.529882 6.631400 68 97 102
-0.704534 -2.212944 6.024964 66 95 99
-0.821053 -2.776486 7.103282 67 97 102
-0.895162 -2.953947 7.782877 19 41 46
-0.880982 -3.067290 7.659707 70 97 101
-0.685425 -2.387761 5.895469 66 92 98
-0.879812 -3.055589 7.671906 24 46 51
-0.724458 -2.646994 6.267350 27 49 54
-0.726711 -2.606550 6.284102 69 96 100
-0.726711 -2.606550 6.284102 69 96 100
-0.724463 -2.632618 6.272116 72 97 101
-0.716989 -2.718538 6.221193 29 50 52
-0.860362 -3.310559 7.534544 67 93 99
-0.716292 -2.702422 6.223744 72 96 102
-0.410848 0.317732 3.500864 114 142 149
-0.387851 0.121011 3.294058 77 106 121
-0.533239 -1.580625 4.549520 29 56 60
-0.387607 0.109078 3.296709 132 158 164
-0.717996 -2.653146 6.261425 78 103 107
-0.694213 -2.951084 6.068680 27 49 55
-0.612827 -2.000270 5.309294 31 57 63
-0.662304 -2.258306 5.776449 34 60 66
-0.728182 -2.494313 6.380441 34 60 66
-0.689856 -2.996978 6.037372 33 52 59
-0.389433 -0.320138 3.320861 142 171 176
-0.678846 -3.109868 5.959454 27 46 49
-0.383712 -0.390324 3.286470 144 171 181
-0.654214 -3.023293 5.736426 27 46 53
-0.654214 -3.023293 5.736426 27 46 53
-0.674484 -3.155941 5.929502 25 44 49
-0.674484 -3.155941 5.929502 25 44 49
-0.672771 -3.177631 5.914911 23 42 47
-0.663802 -3.262826 5.853298 23 43 48
-0.670332 -3.119527 5.943156 110 137 141
-0.692580 -3.264472 6.156478 103 129 135
-0.763295 -3.730751 6.842725 96 121 125
-0.676548 -3.006767 6.030887 31 58 62
-0.447743 -1.969743 3.877019 30 52 58
-0.973989 -5.123536 8.892498 118 140 146
-0.377671 -0.314583 3.321031 133 162 167
-0.370108 0.186347 3.311956 54 82 93
-0.869497 -3.776698 8.113612 53 82 89
-0.365876 0.054349 3.305614 47 75 82
-0.619566 -3.432581 5.767676 89 114 124
-0.614988 -3.439511 5.766246 43 72 79
-0.371938 0.457716 3.508795 47 74 84
-0.604469 -3.281461 5.884368 90 126 134
-0.604469 -3.281461 5.884368 90 126 134
-0.585181 -3.278686 5.882505 90 126 136
-0.351179 0.411382 3.541020 101 134 137
-0.335284 -0.610606 3.359312 109 129 134
-0.565509 -3.276829 5.881805 67 102 112
-0.323204 0.416905 3.567299 85 114 121
-0.523944 1.852489 6.146974 32 54 59
-0.517675 1.877576 6.159998 43 63 68
-0.511722 1.817931 6.236076 31 51 56
-0.474903 -2.513783 6.380143 150 177 181
-0.462524 -2.722392 6.243723 48 74 81
-0.460331 -2.756929 6.225695 6 28 34
-0.457855 -2.716180 6.250663 134 158 164
-0.403164 -2.430214 5.475219 102 134 140
-0.461414 -2.553119 6.347233 51 79 90
-0.461414 -2.553119 6.347233 51 79 90
-0.462496 -2.528882 6.368026 131 160 165
-0.451313 -2.705764 6.254047 130 153 155
-0.449766 -2.711218 6.239118 71 100 105
-0.449766 -2.711218 6.239118 71 100 105
-0.456650 -2.535517 6.355283 145 171 177
-0.445870 -2.725094 6.239417 118 145 149
-0.454324 -2.513574 6.378544 141 164 166
-0.444472 -2.551953 6.346538 34 63 68
-0.410481 -3.281206 5.870275 143 171 178
-0.424821 -2.496285 6.404710 89 111 116
-0.230716 0.331288 3.566560 101 131 136
-0.247653 0.579480 3.965407 62 88 95
-0.207725 0.080786 3.346618 70 104 117
-0.380277 -2.573166 6.366207 30 35 33
-0.385186 1.539222 7.219481 57 83 89
-0.359049 1.491064 7.262278 46 72 78
-0.355691 1.463403 7.241873 72 99 103
-0.355691 1.463403 7.241873 72 99 103
-0.320391 1.693228 6.591085 58 83 87
-0.161441 0.605602 3.974468 60 90 95
-0.159296 2.249086 5.107755 112 127 129
-0.109295 -0.331830 3.398146 31 60 69
-0.109295 -0.331830 3.398146 31 60 69
-0.141671 2.222399 5.215608 41 63 68
-0.082802 2.096784 5.611649 51 71 76
-0.079482 2.035516 5.682925 42 61 64
-0.068930 2.141868 5.473726 60 85 89
-0.063190 2.059615 5.673679 25 44 49
-0.061038 2.018510 5.654547 41 58 61
-0.002749 -0.871726 3.283450 90 109 116
-0.002749 -0.871726 3.283450 90 109 116
0.001150 -0.564490 3.176607 65 94 103
0.011838 0.295695 3.395958 123 152 159
0.048602 1.699601 6.692870 84 113 117
0.066946 1.696222 6.688649 28 47 52
0.067792 1.669080 6.700739 42 61 68
0.046174 -0.809305 3.178154 87 114 124
0.136891 1.431712 7.410151 112 138 138
0.061167 0.166224 3.033779 94 124 135
0.061167 0.166224 3.033779 94 124 135
0.061167 0.166224 3.033779 94 124 135
0.092469 0.151832 2.992746 142 168 174
0.103450 -1.032868 3.282493 80 99 106
0.103450 -1.032868 3.282493 80 99 106
0.100903 0.168024 2.993781 57 89 102
0.100903 0.168024 2.993781 57 89 102
0.158440 -0.431936 3.326334 77 113 121
0.146119 0.209307 3.049516 38 63 73
0.303243 -2.926896 6.103168 132 140 139
0.168730 0.173992 3.055713 64 97 106
0.182346 0.327297 3.088952 55 87 100
0.186638 0.158981 3.038735 45 65 76
0.206357 -0.281737 3.258138 89 121 132
0.223187 -0.546415 3.246603 86 118 129
0.221436 0.328312 3.093248 64 93 100
0.241094 -0.584025 3.200675 134 160 166
0.241094 -0.584025 3.200675 134 160 166
0.247006 -0.837382 3.212072 68 97 104
0.254138 -0.540668 3.244799 73 105 118
0.259116 -0.608344 3.192166 89 120 129
0.343024 1.714051 4.101042 29 46 49
0.280665 -0.541732 3.234416 86 117 126
0.275113 0.203871 3.074183 60 94 107
0.392906 1.626275 4.301182 37 52 54
0.292216 -0.544149 3.229117 77 109 120
0.536613 -3.309622 5.800239 74 85 89
0.542037 -3.297925 5.802594 76 85 88
0.542037 -3.297925 5.802594 76 85 88
0.291827 0.204463 3.072359 78 113 127
0.307768 -0.542601 3.227967 70 105 115
0.309009 -0.736809 3.197130 59 82 90
0.316285 -0.634856 3.210004 63 92 99
0.451056 1.705037 4.303865 84 105 107
0.315045 0.097020 3.003960 67 99 110
0.315045 0.097020 3.003960 67 99 110
0.604306 1.215339 5.687910 62 79 82
0.332991 0.187496 3.034216 147 174 184
0.635758 -3.199487 5.855554 45 53 52
0.354146 -0.335521 3.232883 69 101 114
0.324953 -0.031902 2.933494 99 134 144
0.643491 -3.194694 5.862905 125 141 147
0.388810 -0.517885 3.330147 72 112 124
0.759453 -3.430382 6.568796 25 40 43
0.384643 -0.498517 3.286265 74 112 124
0.345684 0.007723 2.919877 69 100 109
0.695986 -2.972103 5.896224 44 61 64
0.695986 -2.972103 5.896224 44 61 64
0.696929 -2.959360 5.897808 7 22 25
0.697883 -2.962879 5.885683 58 76 77
0.359916 0.051571 2.968353 72 103 112
0.708471 -2.954125 5.898871 12 31 36
0.708471 -2.954125 5.898871 12 31 36
0.381078 0.330811 3.111862 121 147 153
0.381078 0.330811 3.111862 121 147 153
0.713192 -2.955758 5.902169 22 44 50
0.710823 -2.974197 5.881821 61 80 83
0.717707 -2.971368 5.889155 0 3 10
0.399846 -0.388824 3.238939 80 110 121
0.747231 -2.588031 6.103315 61 87 93
0.726553 -2.948914 5.901158 127 151 157
0.727150 -2.963183 5.897582 52 76 82
0.716373 -3.084193 5.804144 15 38 46
0.377985 0.107229 2.993878 113 144 153
0.719502 -3.169848 5.745931 0 20 31
0.420782 0.482377 3.296555 66 98 104
0.735917 -3.050705 5.799539 79 98 101
0.419277 -1.104137 3.234444 36 62 69
0.758513 -2.996718 5.827938 34 55 63
0.760736 -3.004804 5.818630 124 139 141
0.732880 -3.379024 5.593885 21 50 64
0.732880 -3.379024 5.593885 21 50 64
0.393506 0.029385 2.952767 107 140 149
0.401076 0.125362 2.997890 67 103 113
0.400042 0.091451 2.984377 74 109 119
0.411176 0.129259 3.001662 116 149 158
0.411176 0.129259 3.001662 116 149 158
0.763596 -3.310343 5.631121 130 146 152
0.431699 0.375910 3.131703 58 85 99
0.777628 -3.270073 5.629974 113 125 129
0.408990 -1.205574 2.943097 45 69 75
0.419985 0.074589 2.978269 69 104 114
0.418393 -0.010310 2.960628 116 151 161
0.418393 -0.010310 2.960628 116 151 161
0.815662 -2.857844 5.816075 112 134 139
0.791116 -3.267397 5.618415 101 122 124
0.791116 -3.267397 5.618415 101 122 124
0.789259 -3.312413 5.592585 72 91 98
0.428959 0.078248 2.979761 139 168 173
0.484743 -1.540222 3.408278 38 62 68
0.492108 -1.572372 3.452976 39 64 68
0.792448 -3.346801 5.569069 68 87 94
0.828277 -3.044345 5.795473 123 142 147
0.808508 -3.273623 5.658788 80 98 105
0.810001 -3.263424 5.665543 112 136 142
0.467549 -0.401815 3.222079 80 109 123
0.469281 -0.477598 3.224939 149 173 179
0.740390 -2.277577 5.126469 106 134 141
0.600333 -1.323098 4.062512 127 149 155
0.767286 -2.791552 5.147646 35 56 64
1.164928 -4.558730 7.603915 39 63 69
0.933633 -2.876912 5.942143 73 95 100
0.482577 0.137668 3.021678 35 56 64
0.939849 -2.877697 5.948073 132 153 155
0.642571 -1.315669 4.042139 127 149 155
0.422476 -0.883304 2.586042 36 70 76
0.525269 -0.168291 3.041041 85 117 128
0.544958 0.354320 3.128957 69 100 109
0.530536 -0.166087 3.044239 145 173 180
0.555639 0.379021 3.138023 59 91 104
0.555639 0.379021 3.138023 59 91 104
0.566349 0.224486 3.075479 75 107 118
1.101476 -3.341589 5.805413 97 126 135
0.599933 -0.159999 3.030089 76 112 118
0.604573 -0.121168 3.038090 93 128 138
0.624545 -0.248784 2.989004 77 106 115
0.643767 -0.211714 3.072789 129 154 158
0.661130 0.380426 3.134626 69 100 109
0.645562 -0.111913 3.010309 95 118 126
0.828764 -1.009729 3.832727 63 90 100
0.686149 0.217790 3.082724 92 125 134
0.686149 0.217790 3.082724 92 125 134
0.693347 0.286760 3.107996 69 100 115
0.661847 -0.364139 2.908726 153 177 183
0.860095 -0.893086 3.800130 92 119 129
0.676953 -0.165039 2.949853 136 162 169
0.673165 -0.348250 2.915263 80 111 120
0.724730 0.031584 3.002950 118 149 158
0.704519 -0.348371 2.922175 58 93 106
0.711849 -0.346866 2.916166 155 179 185
0.763796 0.287230 3.098881 67 98 113
0.743527 -0.141077 2.966596 46 75 84
0.780995 0.289024 3.100681 52 79 93
0.795823 0.291262 3.103100 50 79 93
0.782518 0.132587 3.037866 132 158 164
0.824432 0.290046 3.113530 40 69 78
0.824432 0.290046 3.113530 40 69 78
0.977715 -0.767433 3.638530 130 159 164
0.991179 -0.745435 3.627211 123 151 158
1.021651 -0.720631 3.616449 106 136 141
1.451467 1.611244 5.090942 29 44 47
1.022963 -0.884601 3.567557 123 152 161
1.454335 1.618777 5.086501 25 42 45
1.030800 -0.751971 3.499041 135 161 167
1.036672 -0.745374 3.504506 55 82 92
1.057314 -0.744907 3.494530 114 146 152
1.062024 -0.738657 3.507464 46 69 77
1.090341 -0.301024 3.429057 60 87 97
1.139191 -0.538947 3.573747 69 101 112
1.163942 -0.673507 3.629424 44 62 69
1.179125 -0.457525 3.617535 85 109 115
1.112096 -0.257595 3.402522 60 88 99
2.025993 -2.398583 6.220466 54 83 90
1.177555 -0.554813 3.573985 51 82 91
1.156807 -0.730807 3.513443 56 77 85
1.163511 -0.730449 3.517430 31 52 60
1.115377 0.355037 3.316503 44 74 85
1.207404 -0.516683 3.603906 20 44 56
1.207404 -0.516683 3.603906 20 44 56
1.189720 -0.670927 3.543842 76 99 107
1.176995 -0.760397 3.493696 137 164 174
1.194735 -0.708656 3.539621 61 84 92
1.194160 -0.700630 3.531047 131 155 161
1.221929 -0.593573 3.614294 51 82 91
1.196173 -0.735141 3.534592 37 58 66
1.198044 -0.716723 3.537091 51 70 77
1.197478 -0.705460 3.524255 133 153 158
1.197872 -0.661136 3.525568 85 111 117
1.167042 -0.139924 3.418397 16 32 39
1.233221 -0.573166 3.612841 108 139 148
2.108403 -2.392794 6.216958 50 79 84
2.108403 -2.392794 6.216958 50 79 84
1.204521 -0.660182 3.487912 94 112 119
2.130456 -2.390937 6.215489 47 73 80
2.130456 -2.390937 6.215489 47 73 80
2.149971 -2.387855 6.208465 51 79 86
2.149971 -2.387855 6.208465 51 79 86
1.243651 -0.832093 3.552040 81 103 109
1.241554 -0.846895 3.531555 91 109 116
1.244054 -0.609371 3.524267 85 113 120
1.244054 -0.609371 3.524267 85 113 120
1.240245 -0.854510 3.512487 85 108 116
1.249477 -0.842882 3.519352 55 74 81
1.249477 -0.842882 3.519352 55 74 81
1.244777 -0.858484 3.505033 87 115 122
1.260589 -0.825321 3.537510 80 102 108
1.268259 -0.817045 3.537580 98 120 125
1.227656 -0.682221 3.418080 163 179 185
1.263433 -0.843601 3.503896 147 166 173
1.261510 -0.855696 3.496340 98 120 126
2.230427 -2.383153 6.201462 54 80 86
1.279659 -0.825683 3.510175 92 114 120
1.278429 -0.834813 3.501304 89 111 117
1.285587 -0.589859 3.498692 91 112 120
1.236038 -0.710778 3.357606 90 113 121
1.226242 0.398013 3.308207 52 87 97
2.080069 -3.176597 5.690980 54 80 87
1.240231 -0.702411 3.347185 102 124 130
1.290267 -0.827078 3.484085 108 132 138
1.290267 -0.827078 3.484085 108 132 138
1.240060 -0.707910 3.343438 78 101 109
1.293914 -0.554147 3.428585 140 161 169
1.295745 -0.512552 3.412837 105 124 132
1.257569 0.319754 3.300716 61 93 104
1.266462 -0.666197 3.328972 122 148 155
1.283055 0.582888 3.360551 59 94 104
1.256975 0.355360 3.285824 53 91 103
1.274440 -0.633094 3.335324 133 154 162
1.289491 0.588506 3.362536 127 151 157
1.304365 -0.858086 3.416179 97 119 125
1.269984 -0.666226 3.320740 86 117 126
1.306757 -0.856361 3.417671 81 105 111
1.265904 0.378582 3.285693 67 95 106
1.265904 0.378582 3.285693 67 95 106
1.267548 0.381947 3.285883 47 75 86
1.277520 -0.653322 3.319304 135 160 170
1.297874 -0.135841 3.368600 51 80 85
1.281648 -0.648313 3.320326 126 149 157
1.303509 -0.876101 3.383488 91 117 124
1.295249 -0.624003 3.348503 104 123 128
1.295249 -0.624003 3.348503 104 123 128
1.274966 0.111221 3.278355 35 63 70
1.274966 0.111221 3.278355 35 63 70
1.311590 0.581591 3.355892 73 103 114
1.307127 -0.624039 3.354555 54 76 82
1.288212 0.382553 3.284433 64 98 111
1.306576 -0.932400 3.347957 84 112 119
1.322418 -0.831665 3.369601 139 164 174
1.321734 -0.816099 3.362820 92 113 121
1.335547 -0.800019 3.377006 61 80 87
1.327047 -0.708393 3.347013 101 127 133
1.331203 -0.643869 3.352285 83 106 114
1.350611 -0.563211 3.396073 58 86 93
1.341147 -0.873569 3.370101 74 104 115
1.327142 -0.708787 3.332477 107 131 137
1.288862 0.132034 3.220780 63 94 103
1.357792 -0.567632 3.395197 129 148 155
1.341426 -0.699524 3.352348 35 51 57
1.349932 -0.858540 3.371881 81 109 116
1.353952 -0.587142 3.379617 133 150 153
1.349384 -0.864858 3.368605 141 165 171
1.310740 0.384690 3.256714 71 98 112
1.310740 0.384690 3.256714 71 98 112
1.344242 -0.819844 3.352227 68 95 105
1.347923 -0.688762 3.355340 102 122 127
1.355004 -0.857449 3.374954 155 177 183
1.348258 -0.824227 3.351957 130 153 161
1.308381 0.338602 3.236229 98 121 129
1.358804 -0.592901 3.369521 126 146 151
1.342275 -0.721496 3.323329 116 145 150
1.345666 -0.716168 3.331738 41 68 78
1.296610 0.140613 3.196219 57 85 96
1.296610 0.140613 3.196219 57 85 96
1.366901 -0.636309 3.372982 37 56 61
1.311155 0.323478 3.220520 101 122 130
1.366705 -0.629657 3.366654 108 127 130
1.382275 -0.553352 3.402306 131 150 157
1.372432 -0.899163 3.372068 76 101 111
1.291314 0.020304 3.155159 92 111 118
1.371956 -0.625421 3.365696 74 99 103
1.367670 -0.857664 3.356174 127 148 156
1.307485 0.181214 3.180658 90 116 123
1.381523 -0.812841 3.377073 57 76 83
1.376313 -0.669002 3.351362 114 136 142
1.375623 -0.646078 3.350357 59 81 87
1.377793 -0.574575 3.349930 60 79 86
1.380298 -0.690317 3.357394 57 79 85
1.375415 -0.707897 3.341937 58 78 83
1.297762 0.073722 3.142575 88 111 119
1.308095 0.151164 3.164618 89 118 127
1.372754 -0.612011 3.332027 137 153 159
1.301312 0.076816 3.134001 91 112 120
1.301312 0.076816 3.134001 91 112 120
1.388438 -0.940309 3.341885 78 107 116
1.388438 -0.940309 3.341885 78 107 116
1.430284 -0.777071 3.423062 65 84 91
1.413068 -0.807654 3.374647 115 133 140
1.436452 -0.766105 3.417977 67 91 97
1.344405 0.425785 3.177687 93 113 124
1.344405 0.425785 3.177687 93 113 124
1.439224 -0.784394 3.414011 60 78 85
1.392543 -0.584717 3.295698 54 72 79
1.428211 -0.898000 3.380604 130 153 161
1.348014 0.420201 3.163187 95 121 128
1.445683 -0.788858 3.409369 108 128 133
1.449297 -0.785322 3.411353 64 85 93
1.448140 -0.768739 3.408331 125 144 151
1.442008 -0.804972 3.366990 46 71 81
1.451062 -0.861500 3.373870 67 94 104
1.451062 -0.861500 3.373870 67 94 104
1.456338 -0.916154 3.380018 135 159 165
1.406721 -0.584793 3.251338 154 176 182
1.359854 -0.367321 3.136840 59 95 105
1.413486 -0.568469 3.258092 119 148 157
1.414306 -0.580468 3.252958 67 102 112
1.420166 -0.563641 3.259412 55 86 101
1.370199 -0.444235 3.138996 87 109 115
1.423758 -0.573088 3.258175 132 160 167
1.421819 -0.618850 3.249994 79 109 120
1.421819 -0.618850 3.249994 79 109 120
1.383739 -0.352661 3.154131 62 91 100
1.475895 -0.914675 3.372341 134 153 160
1.488606 -0.934611 3.401492 116 141 151
1.377567 -0.360558 3.132632 58 86 93
1.479950 -0.911128 3.375447 82 107 117
1.486162 -0.901365 3.376931 136 155 160
1.441313 -0.584576 3.257064 134 162 169
1.439240 -0.608020 3.250505 89 117 128
1.491561 -0.908966 3.374157 135 157 163
1.444825 -0.581330 3.259085 61 96 106
1.444608 -0.581087 3.258570 61 96 106
1.496574 -0.920216 3.367617 69 100 109
1.516625 -0.899563 3.389610 45 74 83
1.480541 -0.576646 3.277734 88 115 125
1.394254 0.440700 3.065298 72 102 113
1.468894 -0.616495 3.245089 139 162 170
1.537038 -0.911527 3.396793 27 49 55
1.548012 -0.940060 3.403409 129 153 159
1.403421 0.440585 3.059967 69 95 107
1.392040 0.377530 3.027854 34 60 76
1.490485 -0.609312 3.251971 130 152 157
1.387523 0.331125 3.005561 78 106 113
1.401158 0.376526 3.024360 61 89 100
1.442339 0.491639 3.083588 69 98 107
1.413712 0.365347 3.016073 53 82 96
1.387277 0.237290 2.954832 63 95 108
1.528745 -0.556245 3.271211 88 108 119
1.346495 -0.180244 2.862195 96 118 129
1.425597 0.387324 3.027244 106 128 134
1.530170 -0.560776 3.265972 87 112 122
1.530432 -0.560975 3.266417 87 112 122
1.450535 0.478382 3.075397 57 86 95
1.427004 0.382662 3.023926 43 63 74
1.438909 0.412097 3.039782 61 91 102
1.438909 0.412097 3.039782 61 91 102
1.507650 -0.648662 3.199736 69 100 109
1.401093 0.245644 2.953805 68 96 107
1.401093 0.245644 2.953805 68 96 107
1.364390 0.022831 2.866804 99 119 130
1.543003 -0.575465 3.259241 65 91 103
1.463818 0.466434 3.067393 120 142 148
1.411497 0.232471 2.945642 58 83 93
1.473729 0.476858 3.073107 103 130 140
1.558869 -0.523064 3.262712 135 156 164
1.478159 0.482882 3.075982 39 63 75
1.458623 0.393043 3.029847 127 149 154
1.472020 0.440612 3.057163 54 78 90
1.472020 0.440612 3.057163 54 78 90
1.462603 0.406461 3.035569 67 96 105
1.462603 0.406461 3.035569 67 96 105
1.481760 0.470925 3.068473 48 75 89
1.468946 0.393235 3.031578 124 146 152
1.491894 0.455333 3.062718 51 77 89
1.496065 0.471003 3.069042 51 73 85
1.511278 0.523004 3.098884 34 55 63
1.551360 0.622529 3.176564 68 96 107
1.576248 -0.534265 3.236332 71 99 110
1.579362 -0.529509 3.236527 130 154 160
1.504085 0.462754 3.066105 100 123 131
1.581615 -0.521966 3.237845 66 90 102
1.503356 0.448912 3.058915 97 123 130
1.508852 0.456127 3.063161 41 69 80
1.508852 0.456127 3.063161 41 69 80
1.529047 0.527736 3.101951 99 125 132
1.427505 0.129087 2.886509 68 97 106
1.594928 -0.518725 3.235098 78 102 114
1.520237 0.467598 3.069381 44 76 87
1.451115 0.200695 2.925036 70 97 107
1.683275 0.725101 3.405345 45 64 71
1.595592 -0.529630 3.224713 81 106 116
1.602121 -0.518403 3.228093 144 163 170
1.542839 0.505149 3.089071 106 132 139
1.543626 0.499361 3.083656 59 89 100
1.532556 0.455022 3.060811 49 75 89
1.606437 -0.524102 3.220900 88 111 119
1.609028 -0.520921 3.223192 135 154 161
1.536931 0.460887 3.062863 112 136 142
1.540266 0.453620 3.059172 54 80 94
1.675384 0.673396 3.326977 46 70 76
1.552028 0.453098 3.058189 55 81 97
1.424112 -0.046603 2.796279 85 116 125
1.576587 -0.433060 3.105191 20 38 45
1.562842 0.454242 3.055484 47 73 87
1.654915 -0.577214 3.256491 142 158 164
1.569002 0.454328 3.054393 63 90 104
1.452057 0.020541 2.820441 70 100 111
1.712315 1.178707 3.326854 96 120 126
1.603309 0.551323 3.107215 131 150 158
1.594845 0.506000 3.082756 127 151 157
1.577550 0.435296 3.045684 61 93 106
1.547280 0.274573 2.958029 51 80 94
1.547280 0.274573 2.958029 51 80 94
1.602293 0.476133 3.064268 67 97 108
1.591561 0.430066 3.042059 48 76 87
1.731954 1.175250 3.311667 139 158 163
1.564709 0.313236 2.978318 127 148 156
1.506171 0.085466 2.856540 54 82 93
1.655277 0.566958 3.139360 42 61 66
1.594951 0.372201 3.009417 122 145 153
1.594951 0.372201 3.009417 122 145 153
1.559715 0.243133 2.941549 49 78 93
1.633563 0.512942 3.081556 42 73 88
1.619867 0.465214 3.053066 112 135 143
1.635359 0.518083 3.079689 84 112 123
1.761830 1.209064 3.313669 55 68 70
1.568557 0.248474 2.942602 112 136 142
1.500143 -0.171376 2.806122 82 107 117
1.500325 -0.126290 2.800155 80 106 113
1.553659 0.172023 2.896241 60 86 100
1.621301 0.404074 3.020844 97 123 130
1.671430 0.746834 3.111935 135 159 165
1.570794 0.216314 2.922374 61 89 100
1.673918 0.743573 3.107753 68 100 111
1.579004 0.226450 2.929875 112 136 142
1.627407 0.360335 3.004789 93 122 131
1.527469 0.027032 2.816790 62 88 100
1.717966 0.925248 3.170050 72 107 117
1.639969 0.390705 3.025652 28 37 40
1.609282 -0.334984 2.964717 65 95 106
1.789241 1.174781 3.290981 120 142 148
1.604873 0.256897 2.938062 94 122 133
1.614855 0.231640 2.938549 66 96 107
1.594694 0.180937 2.899862 118 140 146
1.598259 0.180619 2.895375 95 118 126
1.624361 0.242545 2.940978 27 35 35
1.592463 0.151388 2.881631 60 89 103
1.612839 0.200357 2.909397 30 35 34
1.586601 0.102157 2.855185 120 144 150
1.557567 -0.001317 2.795705 71 99 110
1.580649 0.075494 2.831981 107 133 140
1.559381 -0.028214 2.780863 67 97 108
1.836354 1.171479 3.248779 140 155 157
1.574209 -0.047510 2.776996 134 153 161
1.596242 0.039340 2.816298 85 116 125
1.842116 1.173660 3.245985 71 93 99
1.839908 1.164104 3.241367 91 111 116
1.748803 -0.586867 3.089178 72 103 112
1.732504 -0.632461 3.056136 62 90 97
1.732504 -0.632461 3.056136 62 90 97
2.339995 1.900043 4.135042 46 58 62
2.339995 1.900043 4.135042 46 58 62
1.752751 -0.581687 3.087958 153 174 176
1.597235 0.002787 2.797969 92 124 135
1.594973 -0.174385 2.793848 120 142 148
1.751048 -0.594710 3.080721 151 170 173
1.591036 -0.033359 2.783120 85 120 130
1.595980 -0.152709 2.792105 124 148 154
1.582592 -0.055384 2.767286 41 53 57
1.745570 -0.626320 3.066093 70 100 105
1.600635 -0.175826 2.794949 32 59 69
1.596360 -0.124277 2.785535 124 147 155
1.749039 -0.618858 3.064216 150 169 172
1.741419 -0.652061 3.050031 48 80 86
1.601517 -0.143227 2.791238 36 65 74
1.825415 1.035658 3.182179 138 155 158
1.745208 -0.638937 3.052232 145 169 175
1.739675 -0.666643 3.040989 44 75 84
1.605706 -0.178062 2.794563 128 152 158
1.820957 0.995709 3.158966 137 152 154
1.613842 -0.002951 2.795728 126 145 150
1.736392 -0.699477 3.021564 62 90 97
1.610425 -0.016800 2.786962 133 152 157
1.735964 -0.708960 3.016899 70 100 105
1.731435 0.630757 2.990945 93 119 126
2.543358 1.785277 4.427730 20 27 30
1.880030 1.165274 3.239791 68 94 100
1.812811 0.896733 3.111216 142 159 162
1.877376 1.121574 3.216940 61 87 94
1.866870 1.073835 3.192101 119 136 139
1.866870 1.073835 3.192101 119 136 139
1.808085 0.851644 3.087700 139 159 160
1.899763 1.165861 3.234756 76 100 106
1.870816 1.052330 3.181843 67 93 100
1.801389 0.777209 3.049967 145 158 160
1.649873 0.166159 2.774256 74 107 122
1.644096 0.137189 2.763980 90 112 118
1.887342 1.051179 3.178637 125 145 150
1.896264 1.083829 3.193763 73 95 101
1.896264 1.083829 3.193763 73 95 101
1.865049 0.964034 3.137827 70 96 102
1.855155 0.923554 3.112780 63 89 96
1.892212 1.034493 3.170814 77 103 109
1.878701 0.976223 3.141431 79 101 107
1.949215 1.211772 3.250098 112 134 140
1.786786 0.621549 2.970117 136 152 158
1.883559 0.958679 3.132288 79 103 109
1.863788 0.878327 3.094941 128 145 148
1.850559 0.830801 3.069504 70 91 99
1.958141 1.211513 3.248088 104 124 129
1.855021 0.839414 3.072187 113 134 136
1.855021 0.839414 3.072187 113 134 136
1.589627 -0.172647 2.619160 80 102 108
1.862271 0.841942 3.074380 68 93 97
1.921254 1.053383 3.172946 128 145 148
1.845657 0.775272 3.042018 69 94 98
1.777484 0.515536 2.917031 131 152 154
1.860139 0.797049 3.050169 81 101 106
1.837695 0.707632 3.006329 65 89 95
1.582128 -0.223502 2.579546 102 124 130
1.847658 0.731413 3.019302 128 143 145
1.954746 1.093016 3.189988 75 99 105
1.826971 -0.710576 2.990301 98 122 128
1.851663 0.731134 3.016353 75 97 103
1.576387 -0.261593 2.558973 104 130 137
1.581519 -0.243053 2.567173 109 128 135
1.834603 0.642707 2.975188 66 88 93
1.605642 -0.170388 2.596576 92 121 130
1.831010 0.628405 2.966068 64 83 90
1.765794 0.402886 2.856898 148 165 168
2.002092 1.211340 3.243396 115 134 139
1.764262 0.393427 2.852041 141 158 161
1.860122 0.714503 3.007537 85 105 110
1.847630 -0.692645 2.999889 95 121 127
1.845741 -0.700282 2.994909 97 119 125
1.845741 -0.700282 2.994909 97 119 125
1.825877 0.584159 2.943221 63 87 93
1.839432 0.622113 2.961794 70 92 98
1.922000 0.902393 3.096590 131 148 151
1.823604 0.567241 2.934381 72 91 98
1.853480 -0.695846 2.995065 99 121 126
1.833122 0.590720 2.945366 130 143 145
1.759223 0.341743 2.824382 141 158 161
1.826132 0.554495 2.932554 67 91 97
1.841923 0.613425 2.955556 127 145 146
1.819372 0.531603 2.916372 64 86 92
1.819372 0.531603 2.916372 64 86 92
2.009803 1.172831 3.223730 78 100 105
1.831042 0.556708 2.927724 128 145 148
1.822395 0.526289 2.912486 126 145 150
1.842366 0.588056 2.944412 69 92 100
1.853841 -0.726596 2.975434 94 118 124
1.840194 0.580008 2.938719 66 90 96
1.872468 -0.681083 3.002299 94 118 124
1.625591 -0.163323 2.586024 90 119 124
1.625591 -0.163323 2.586024 90 119 124
1.909126 0.795660 3.042794 76 96 101
1.750448 0.271967 2.785236 141 164 166
1.821891 0.503885 2.901054 124 143 148
2.034893 1.219023 3.243994 106 123 126
2.024000 1.175544 3.223833 72 92 97
1.826722 0.506940 2.902952 70 94 100
1.826722 0.506940 2.902952 70 94 100
2.035154 1.214389 3.240083 111 127 133
1.887163 -0.663226 3.010579 98 120 126
1.953620 0.925945 3.104831 131 148 151
1.822562 0.484453 2.891095 127 148 150
1.988421 1.040411 3.158739 72 94 100
1.963029 0.952630 3.117869 70 91 99
1.740687 0.215585 2.757463 63 95 101
1.950495 0.901624 3.093112 78 97 104
1.746457 0.229010 2.762172 139 158 163
1.739820 0.201349 2.750895 66 95 102
1.745836 0.219921 2.757775 141 160 163
1.881502 0.651123 2.972228 131 146 149
2.026081 1.124073 3.201759 132 147 150
1.889739 -0.691196 2.993101 97 122 126
1.889739 -0.691196 2.993101 97 122 126
2.026925 1.129712 3.198645 73 95 101
2.013582 1.089318 3.176450 68 92 98
2.013582 1.089318 3.176450 68 92 98
2.009569 1.061660 3.167263 71 93 99
1.815304 0.411386 2.851960 125 144 147
1.812346 0.396451 2.845734 127 144 147
1.934472 0.801060 3.039826 71 91 96
1.591653 -0.323195 2.490226 101 122 130
1.794933 0.338186 2.813474 119 138 143
1.749545 0.194082 2.739262 74 101 111
1.749545 0.194082 2.739262 74 101 111
1.878479 0.601014 2.944865 133 145 149
2.052458 1.179731 3.222704 69 93 99
1.842007 0.481300 2.885963 79 99 104
2.022914 1.071546 3.171883 71 93 99
2.016158 1.051565 3.160610 68 90 96
2.016158 1.051565 3.160610 68 90 96
1.684768 -0.017404 2.626615 69 99 110
1.684768 -0.017404 2.626615 69 99 110
1.780502 0.263212 2.774510 138 155 158
1.878885 0.575409 2.930648 70 92 97
1.878885 0.575409 2.930648 70 92 97
1.893513 0.622787 2.953220 80 98 105
1.938193 0.753324 3.016852 71 90 95
1.814550 0.352622 2.820650 125 142 145
1.807367 0.333285 2.806242 74 96 102
1.738653 0.117399 2.697115 83 109 115
1.723559 0.060354 2.672911 58 95 103
1.983179 0.894044 3.082173 66 90 96
1.983179 0.894044 3.082173 66 90 96
2.012743 0.988104 3.128323 126 142 148
2.087059 1.226447 3.240975 111 128 131
1.649251 -0.190106 2.549185 147 159 163
2.076728 1.191905 3.222030 84 100 106
1.889952 0.569464 2.925072 77 99 105
1.991879 0.902133 3.086418 76 95 102
1.813871 0.321418 2.803797 136 153 156
1.655300 -0.158732 2.550630 93 121 128
1.874837 0.505892 2.892328 72 96 102
1.799411 0.262938 2.772277 145 160 162
1.907612 0.595812 2.938633 77 96 101
1.775848 0.187010 2.731052 134 149 151
1.924618 -0.711993 2.973436 98 119 127
1.793747 0.227022 2.752092 135 155 160
1.788181 0.204373 2.743333 83 105 110
1.918723 0.610594 2.945718 71 93 99
1.745430 0.080447 2.674341 136 152 158
1.959806 0.744687 3.008953 130 145 148
1.803730 0.248589 2.762895 75 99 105
1.833364 0.329381 2.805394 137 155 156
1.871048 0.445101 2.863169 78 100 105
1.917438 0.590072 2.932523 132 146 152
2.040433 0.981916 3.121993 126 143 146
1.837809 0.332536 2.805447 79 101 107
1.781667 0.159707 2.717537 77 103 109
1.926855 0.606540 2.940187 129 144 147
1.767962 0.115557 2.691288 132 147 150
1.722360 -0.019913 2.620099 84 113 122
1.961574 0.710953 2.990848 69 88 95
1.778763 0.140150 2.706450 71 97 104
1.806406 0.223782 2.749025 143 158 161
2.013658 0.874728 3.070145 135 146 150
2.058686 1.021588 3.139172 123 142 145
1.931976 0.610697 2.942372 67 89 95
2.073025 1.062103 3.158780 72 98 105
1.764585 0.095363 2.679421 137 149 155
1.789463 0.164368 2.717840 145 160 163
1.705823 -0.090231 2.587843 56 88 94
1.961400 0.692110 2.981280 57 79 85
1.801353 0.195482 2.733423 86 109 117
1.948223 -0.710913 2.971505 88 114 120
1.956414 0.671909 2.971384 74 94 99
1.684314 -0.149662 2.549767 69 95 101
1.952951 0.657144 2.964977 138 151 153
1.868148 0.390782 2.833830 132 147 150
1.943853 -0.719658 2.962737 89 113 119
1.704349 -0.105875 2.579879 51 82 91
1.708164 -0.091045 2.582626 140 165 169
1.949391 -0.717218 2.966594 142 161 166
1.972804 0.713044 2.990026 73 92 99
1.972804 0.713044 2.990026 73 92 99
1.871658 0.394446 2.833847 79 98 105
1.897087 0.472436 2.873039 79 98 105
1.771894 0.093845 2.679434 82 106 112
1.914234 0.522369 2.898297 76 100 106
1.707507 -0.102431 2.578173 134 160 166
1.906860 0.493109 2.883850 127 144 147
1.974204 0.707809 2.987597 130 145 148
1.726601 -0.041585 2.606097 141 160 163
1.966202 0.674907 2.972405 75 95 100
1.705068 -0.112411 2.570518 142 166 172
1.704984 -0.115016 2.567840 137 159 164
1.903574 0.470742 2.871843 125 142 145
2.058560 0.964889 3.109443 82 102 107
1.805143 0.174710 2.719496 141 158 161
1.963547 0.657614 2.962824 67 86 93
1.963547 0.657614 2.962824 67 86 93
1.880294 0.396725 2.834458 83 103 108
1.967735 0.670202 2.968176 128 145 148
1.768278 0.060246 2.661212 76 102 109
2.128327 1.183621 3.212986 75 96 104
1.844853 0.282268 2.776804 141 156 159
1.978928 0.696577 2.982473 76 95 102
1.907711 0.474903 2.872399 81 103 109
1.809448 0.178858 2.721042 86 110 116
1.905225 0.464509 2.868093 70 93 101
2.029584 0.857117 3.058470 75 94 101
1.883383 0.391086 2.832635 131 148 151
1.883383 0.391086 2.832635 131 148 151
1.982436 0.701259 2.982762 119 135 141
2.010766 0.787686 3.026049 126 141 144
1.701863 -0.140267 2.552621 139 158 163
1.968854 -0.705429 2.973322 103 122 129
1.755172 0.012107 2.632165 137 152 155
1.791866 0.101396 2.686221 85 109 115
1.985760 0.698231 2.979700 77 97 102
1.985760 0.698231 2.979700 77 97 102
1.759278 0.015692 2.631827 79 104 108
1.706627 -0.137583 2.551827 147 167 172
2.003549 0.755957 3.004604 69 92 100
1.865380 0.317702 2.792751 138 156 157
1.773189 0.045786 2.651907 131 151 156
2.045535 0.878871 3.067443 77 97 102
1.873365 0.338626 2.803836 136 153 156
2.005717 0.750805 3.005645 131 148 151
1.825577 0.190873 2.727423 83 107 113
2.090331 1.014497 3.130842 76 95 103
2.041024 0.853818 3.055094 67 89 95
2.041024 0.853818 3.055094 67 89 95
1.909086 0.436759 2.852990 82 101 108
1.694091 -0.194739 2.520815 158 171 173
1.858491 0.274196 2.770120 76 98 104
2.139940 1.154154 3.197287 74 95 103
2.152516 1.197836 3.215126 78 97 104
2.045679 0.848117 3.049896 76 98 104
1.862697 0.278702 2.771180 134 152 153
1.807556 0.112877 2.685159 138 155 158
1.686449 -0.237120 2.501312 74 100 107
1.778945 0.025923 2.639648 138 158 163
1.778945 0.025923 2.639648 138 158 163
1.861417 0.260691 2.764253 133 152 157
2.052632 0.853046 3.053025 123 142 145
1.867892 0.282494 2.773428 81 103 109
1.770732 -0.000437 2.624326 75 98 106
1.862081 0.264617 2.762499 74 100 107
1.882878 0.323974 2.793778 130 145 148
1.870919 0.290030 2.774684 77 96 103
1.870919 0.290030 2.774684 77 96 103
1.796594 0.068546 2.661211 85 109 115
2.089923 0.961547 3.103594 134 149 151
1.781858 0.029081 2.637722 76 105 114
1.986323 0.631592 2.946280 71 89 96
1.868526 0.272500 2.767486 132 151 156
1.977597 0.603217 2.930845 136 148 152
1.763875 -0.028728 2.607160 130 151 153
1.840604 0.186417 2.722481 89 111 117
2.085924 0.938110 3.091641 71 90 97
2.057738 0.844581 3.047231 122 139 142
1.981706 0.607035 2.932729 71 90 97
2.075993 0.899534 3.074258 55 78 86
2.096356 0.965061 3.104590 69 88 95
1.778679 0.000845 2.625180 75 104 109
1.902146 0.357552 2.810077 73 97 103
2.146868 1.121012 3.178489 120 139 142
1.940241 0.471383 2.866212 123 140 143
1.680687 -0.283250 2.474756 74 99 103
1.766082 -0.043031 2.602054 82 110 117
1.946631 0.483410 2.872973 77 96 103
2.063374 0.847833 3.048248 77 99 105
1.943656 0.474556 2.865211 76 95 102
1.737013 -0.126538 2.554590 78 107 114
1.771185 -0.039278 2.602614 140 159 162
2.002212 0.640313 2.947426 67 89 95
1.660188 -0.349972 2.435740 86 106 111
1.995046 0.615602 2.937032 76 95 103
1.995046 0.615602 2.937032 76 95 103
1.753716 -0.093048 2.573616 133 152 155
1.753716 -0.093048 2.573616 133 152 155
1.790540 0.012161 2.628529 84 112 119
1.790540 0.012161 2.628529 84 112 119
1.743126 -0.120105 2.556357 80 109 114
1.680464 -0.290820 2.462178 158 170 172
2.037297 0.739035 2.995424 68 87 94
1.686074 -0.272340 2.469226 90 109 116
2.018756 -0.680633 2.979818 91 114 122
2.014833 0.663404 2.958149 117 134 137
1.795708 0.013642 2.629217 134 153 158
1.795708 0.013642 2.629217 134 153 158
2.172512 1.153543 3.190638 76 94 101
2.018955 0.667558 2.960271 65 87 93
1.790647 -0.006712 2.618503 141 161 166
2.137241 1.036794 3.135845 78 97 104
1.955138 0.466771 2.862158 73 95 100
1.684585 -0.292402 2.458529 86 111 121
1.670112 -0.344035 2.434601 63 85 90
1.840057 0.125414 2.687471 134 153 156
1.793629 -0.004135 2.617880 74 100 107
1.869181 0.200345 2.725716 76 100 106
1.746113 -0.142002 2.542191 72 101 110
2.196861 1.202113 3.212979 78 97 102
1.736211 -0.171868 2.527167 128 147 152
1.991412 0.561845 2.906644 75 97 103
2.001888 0.588264 2.920925 75 95 100
1.679408 -0.320141 2.440961 82 100 107
2.080918 0.831891 3.037637 64 86 92
1.893732 0.261977 2.758373 82 104 110
1.969567 0.487215 2.870392 77 95 102
2.057808 0.753530 3.000739 127 145 146
1.672551 -0.352294 2.428226 147 162 165
2.028418 0.660798 2.955553 66 88 94
1.842364 0.111653 2.677705 132 151 154
1.679808 -0.327223 2.436816 82 103 111
1.785378 -0.051973 2.592880 76 106 111
1.775261 -0.080164 2.577093 90 114 120
2.005173 0.584327 2.917023 121 138 141
2.149601 1.025711 3.130816 62 86 92
1.797420 -0.029002 2.605233 75 104 111
2.064642 0.756880 3.000773 71 92 100
1.878196 0.201330 2.723464 81 103 109
1.878196 0.201330 2.723464 81 103 109
1.698934 -0.285897 2.457681 71 100 107
1.698934 -0.285897 2.457681 71 100 107
2.009369 0.587689 2.917425 69 90 92
2.081474 0.803248 3.024019 120 135 138
1.818870 0.027497 2.634299 82 101 104
1.818870 0.027497 2.634299 82 101 104
1.818870 0.027497 2.634299 82 101 104
2.042938 -0.678351 2.977379 87 110 118
2.042938 -0.678351 2.977379 87 110 118
1.788704 -0.059696 2.587966 140 159 164
2.059653 0.724830 2.988046 68 90 96
2.059653 0.724830 2.988046 68 90 96
1.716114 -0.253918 2.477773 62 91 100
1.902083 0.258233 2.752199 134 153 156
1.834262 0.057827 2.649223 138 157 160
1.998048 0.531462 2.889687 69 91 97
1.891802 0.216889 2.733006 70 93 101
1.891802 0.216889 2.733006 70 93 101
1.891802 0.216889 2.733006 70 93 101
2.059798 0.716010 2.980160 69 91 97
2.059798 0.716010 2.980160 69 91 97
1.905972 0.261120 2.753307 81 103 109
1.826076 0.030547 2.634776 86 106 111
2.145981 0.976309 3.104653 70 89 96
1.820759 0.013490 2.625772 80 104 110
1.756144 -0.161558 2.530326 76 104 111
1.756144 -0.161558 2.530326 76 104 111
1.828837 0.034013 2.636525 134 151 154
1.833207 0.044472 2.642593 79 105 111
2.029307 0.612887 2.929320 128 140 144
2.023010 0.593773 2.919811 124 143 146
1.819047 0.003632 2.619091 144 160 166
1.821526 0.009978 2.622904 130 149 154
1.872966 0.150172 2.696804 88 110 116
1.872966 0.150172 2.696804 88 110 116
2.220651 1.203051 3.207271 69 85 91
2.220651 1.203051 3.207271 69 85 91
1.941575 0.341580 2.795540 130 145 148
2.057109 0.684027 2.964020 58 80 86
2.057109 0.684027 2.964020 58 80 86
1.765690 -0.152300 2.535558 114 143 148
1.765690 -0.152300 2.535558 114 143 148
1.898517 0.212775 2.728533 83 105 110
1.765020 -0.155921 2.531695 63 94 103
1.778584 -0.118833 2.551548 137 157 162
1.762858 -0.163586 2.528266 128 147 152
1.806901 -0.044696 2.592164 88 112 118
1.817295 -0.016394 2.607296 87 109 115
2.104859 0.818840 3.027894 68 89 97
2.104859 0.818840 3.027894 68 89 97
2.019213 0.557600 2.901039 127 142 145
1.923014 0.271863 2.758735 138 155 158
2.054128 -0.699151 2.962815 91 115 121
2.054128 -0.699151 2.962815 91 115 121
1.763724 -0.168072 2.524890 72 99 109
1.969498 0.402916 2.825594 125 141 147
1.796724 -0.085159 2.570544 77 103 110
1.796724 -0.085159 2.570544 77 103 110
1.828317 -0.000163 2.615810 81 109 116
2.063023 0.674030 2.957733 126 143 146
2.063023 0.674030 2.957733 126 143 146
1.800241 -0.078126 2.573279 139 158 161
1.800241 -0.078126 2.573279 139 158 161
1.763674 -0.174969 2.519965 76 101 111
1.779839 -0.133408 2.543377 83 111 118
1.717424 -0.296513 2.451610 119 146 150
1.717424 -0.296513 2.451610 119 146 150
1.856752 0.073595 2.654400 132 151 156
1.887465 0.152284 2.696047 137 152 155
2.063268 -0.692318 2.964760 89 114 124
1.811699 -0.057918 2.584006 139 158 163
1.918267 0.233163 2.739769 130 147 150
1.931272 0.272561 2.758149 126 145 150
1.860825 0.075894 2.655268 88 110 116
1.878338 0.120972 2.680460 87 111 117
2.238797 1.193432 3.203483 69 88 95
2.238797 1.193432 3.203483 69 88 95
1.772033 -0.168448 2.523176 72 101 110
1.772033 -0.168448 2.523176 72 101 110
1.891779 0.155104 2.697106 77 99 105
2.176642 0.996550 3.112060 76 93 102
2.244893 1.216880 3.209960 72 92 97
2.102365 0.767579 3.002415 63 85 91
2.189080 1.035657 3.128593 73 92 99
2.033367 0.558143 2.900639 65 85 90
1.959436 0.339647 2.791720 76 95 102
2.244498 1.205137 3.204975 78 96 103
2.119083 0.809779 3.020482 65 87 93
2.119083 0.809779 3.020482 65 87 93
2.010412 0.477855 2.860103 130 145 148
1.964034 0.342306 2.792482 135 148 150
2.257656 1.228514 3.215944 69 88 95
2.158125 0.914283 3.070074 64 86 92
2.069852 0.646416 2.941670 61 80 88
1.969183 0.345203 2.795101 78 96 103
1.845975 0.004401 2.616005 133 152 155
2.264176 1.238011 3.221200 110 129 136
2.163372 0.920864 3.073145 128 143 146
2.175964 0.957921 3.091312 69 88 93
2.021733 0.495126 2.867295 122 139 142
2.087244 -0.676064 2.972746 88 114 121
2.095923 0.710285 2.972977 65 86 94
2.105431 0.737020 2.986250 123 139 145
2.014516 0.469987 2.854425 126 143 146
1.839433 -0.022127 2.600243 86 104 111
1.752029 -0.253552 2.473615 131 150 155
2.001691 0.426684 2.833884 72 94 100
1.787393 -0.164748 2.524128 79 104 114
2.204699 1.036406 3.125598 66 89 97
1.842940 -0.020671 2.601682 99 118 125
1.930092 0.221899 2.727435 78 102 108
1.928494 0.214177 2.724922 84 106 112
1.928494 0.214177 2.724922 84 106 112
2.019418 0.471641 2.854865 69 91 97
2.013698 0.454556 2.846586 122 139 142
2.095343 -0.669417 2.975531 99 115 121
2.135596 0.815847 3.021411 76 96 101
1.818861 -0.091978 2.564591 135 154 159
1.756145 -0.248646 2.473016 84 109 119
1.920593 0.186269 2.709043 77 101 107
2.277868 1.244030 3.223656 93 108 111
2.081922 0.646321 2.940254 68 87 94
1.847696 -0.016911 2.603129 138 154 160
1.943968 0.244775 2.741072 76 100 106
2.157473 0.872136 3.048130 63 84 92
1.793456 -0.162729 2.523771 134 155 157
1.793456 -0.162729 2.523771 134 155 157
1.789334 -0.172518 2.517109 75 102 112
2.013943 0.441252 2.839952 129 146 149
1.850305 -0.012833 2.603945 76 99 107
1.788579 -0.177435 2.515296 121 147 154
1.762408 -0.245304 2.476842 127 151 157
1.991387 0.373707 2.805467 125 140 143
2.226241 1.070683 3.141056 70 92 98
2.049606 0.541446 2.887156 123 140 143
2.086697 -0.711693 2.952707 88 110 116
2.086697 -0.711693 2.952707 88 110 116
1.993916 0.377385 2.805349 66 85 93
2.178815 0.920799 3.070903 125 141 147
1.832150 -0.074750 2.570943 141 160 163
1.797090 -0.169422 2.520176 133 150 153
2.203046 0.986705 3.101635 64 90 96
2.203046 0.986705 3.101635 64 90 96
1.994770 0.368593 2.800869 74 96 102
2.145157 0.805012 3.016318 63 85 91
2.183809 0.925162 3.071708 67 86 93
1.842798 -0.053727 2.582355 139 158 163
1.750815 -0.290071 2.449351 132 153 155
1.750312 -0.293576 2.447821 80 104 110
2.149492 0.806943 3.016929 117 136 141
2.174322 0.883236 3.051236 71 89 96
2.025143 0.441428 2.837674 130 145 147
1.859135 -0.020148 2.600307 80 106 112
2.022675 0.430410 2.833066 77 96 103
2.022675 0.430410 2.833066 77 96 103
1.827067 -0.102920 2.552896 133 153 158
1.888164 0.055350 2.639119 144 161 164
2.069500 0.564248 2.897881 122 137 140
2.069500 0.564248 2.897881 122 137 140
2.192716 0.930740 3.073771 115 134 139
2.192716 0.930740 3.073771 115 134 139
2.192716 0.930740 3.073771 115 134 139
2.153004 0.810175 3.016837 75 94 101
2.108996 0.679476 2.953217 63 82 89
1.834552 -0.092252 2.560800 139 155 161
1.834552 -0.092252 2.560800 139 155 161
1.971454 0.279076 2.754912 71 96 106
1.942934 0.200579 2.714422 75 97 103
1.800696 -0.182535 2.511148 134 153 156
1.942593 0.196585 2.712066 129 146 149
2.090554 0.616768 2.922891 68 87 94
1.809165 -0.163460 2.521727 125 149 155
1.809165 -0.163460 2.521727 125 149 155
2.253807 1.102147 3.153614 133 150 153
1.785060 -0.225549 2.485561 76 102 109
1.916359 0.118239 2.671596 86 107 115
2.303036 1.245488 3.220535 104 121 124
2.011599 0.378849 2.804507 67 91 97
1.767908 -0.275138 2.457135 81 103 108
2.273033 1.148262 3.175661 129 146 149
1.871090 -0.011710 2.603989 151 166 169
1.835073 -0.101822 2.551977 129 148 151
1.801719 -0.192191 2.504324 71 99 106
1.801719 -0.192191 2.504324 71 99 106
2.181774 0.867645 3.042590 63 85 91
1.984935 0.291675 2.760375 65 89 95
1.966965 0.239373 2.734849 72 96 102
1.966965 0.239373 2.734849 72 96 102
1.744615 -0.337921 2.419259 79 107 114
2.010558 0.361863 2.795556 70 89 96
2.121926 0.677438 2.951012 117 132 135
1.874486 -0.017251 2.599650 84 112 119
2.078414 0.546801 2.887420 124 136 140
1.877859 -0.008568 2.602947 79 103 109
1.905660 0.064234 2.642221 78 104 110
1.787027 -0.245543 2.473675 134 156 162
1.789984 -0.237233 2.477590 128 147 152
1.938123 0.149541 2.685658 82 103 111
1.878352 -0.012011 2.599938 140 162 167
2.133400 -0.668697 2.972014 90 112 118
2.133400 -0.668697 2.972014 90 112 118
2.265909 1.090635 3.146788 71 90 97
2.265909 1.090635 3.146788 71 90 97
1.772224 -0.289764 2.448662 131 151 156
1.888541 0.007751 2.611944 89 111 117
1.851180 -0.091663 2.558696 132 151 154
1.851180 -0.091663 2.558696 132 151 154
