ply
format ascii 1.0
element vertex 1246
property float x
property float y
property float z
property uchar red
property uchar green
property uchar blue
end_header
-1.008330 0.706090 5.138477 61 89 96
-1.752321 1.942889 9.045837 92 112 117
-1.737532 2.568042 8.996078 80 112 117
-1.737532 2.568042 8.996078 80 112 117
-0.828988 -0.804392 4.317198 95 124 129
-0.779389 -0.268835 4.166153 93 129 137
-0.938025 0.685090 5.096070 59 79 90
-0.800219 -0.828900 4.345360 72 103 112
-0.784965 -0.728186 4.310120 73 105 111
-0.744920 -0.139925 4.177315 154 176 182
-0.734997 0.020275 4.150991 85 114 128
-0.730433 0.054577 4.149497 81 114 129
-1.517437 -3.329604 8.866932 121 150 155
-0.941792 2.807409 5.459594 161 169 169
-0.941792 2.807409 5.459594 161 169 169
-0.720118 -0.152016 4.155560 91 122 131
-0.715788 0.032995 4.147974 130 159 166
-0.695899 -0.021623 4.152333 79 105 112
-0.812810 0.652393 4.951252 63 87 93
-0.659206 0.378128 3.994427 142 166 172
-0.658638 0.377971 3.995577 144 164 169
-0.684825 0.112033 4.164740 70 106 116
-0.654699 0.369094 3.992615 39 55 71
-0.884267 2.808816 5.479201 160 167 170
-0.673490 0.007472 4.149021 53 86 101
-0.682180 0.131639 4.206782 40 74 87
-0.869670 2.811588 5.483884 148 161 163
-0.664462 0.031954 4.165681 61 94 109
-0.861276 2.818443 5.499623 35 57 63
-1.232420 2.632578 7.939259 114 136 141
-0.855840 2.841595 5.495890 61 87 93
-0.625392 0.323754 3.990829 137 163 170
-1.227174 2.640644 7.983568 34 56 61
-0.658010 -0.899146 4.259729 145 174 179
-0.642999 0.018674 4.155919 80 111 126
-0.755630 0.686145 4.933135 64 87 95
-0.617964 -0.331642 4.036704 39 67 78
-0.617964 -0.331642 4.036704 39 67 78
-0.840419 2.817575 5.594799 121 144 146
-0.632869 0.063491 4.173873 71 106 120
-0.846479 2.797544 5.678479 116 135 138
-0.623439 0.071548 4.178697 64 101 115
-0.824804 2.809541 5.638145 55 79 85
-0.824804 2.809541 5.638145 55 79 85
-0.619937 0.085277 4.182744 137 165 172
-0.585190 0.340394 3.978291 52 80 87
-0.576810 -0.179491 3.940506 44 62 69
-0.609540 0.151793 4.209995 140 171 180
-0.616564 -0.590961 4.285953 75 110 120
-0.616564 -0.590961 4.285953 75 110 120
-0.557616 -0.258430 3.926692 69 102 111
-0.561102 -0.180426 4.042020 62 92 103
-0.525931 -0.000770 4.034422 97 123 135
-0.539643 0.191053 4.190579 72 104 115
-0.550004 -0.637170 4.291802 77 114 128
-0.544649 -0.612433 4.271777 154 183 192
-1.101143 2.614392 8.990451 53 89 95
-0.755527 2.771848 6.253710 43 62 67
-0.513198 0.210821 4.182766 129 157 164
-0.765019 2.762621 6.373522 31 50 57
-1.145624 1.819278 9.634038 63 89 96
-1.038491 -3.250443 8.807718 146 175 180
-1.035699 -3.298687 8.804807 91 121 126
-0.502705 0.203924 4.187527 136 161 165
-1.027894 -3.302897 8.738319 152 177 181
-1.119036 1.822007 9.635182 51 77 83
-0.471741 0.004178 4.003339 89 121 132
-0.496522 -0.558227 4.231657 81 111 122
-0.496522 -0.558227 4.231657 81 111 122
-0.490332 0.212063 4.185635 49 73 85
-0.476252 -0.127790 4.063194 34 55 63
-1.093978 1.823197 9.628073 39 65 71
-0.482576 0.236895 4.182433 114 142 149
-0.465914 -0.122898 4.070876 32 50 57
-0.764768 -2.266036 6.850483 134 161 165
-0.897197 -3.083021 8.077980 61 85 91
-1.058857 1.825613 9.618683 40 62 68
-0.447750 -0.037574 4.003336 78 110 123
-0.941127 -4.195134 8.620636 66 97 106
-0.512167 -1.004424 4.623709 38 68 73
-1.032879 1.813501 9.625272 28 40 44
-0.459780 -0.505862 4.217965 137 159 165
-0.878859 -4.173824 8.330843 63 84 86
-0.870254 -4.169713 8.310777 134 160 166
-0.427454 0.040218 4.002774 50 80 91
-0.864945 -4.151174 8.326661 97 119 124
-0.437297 0.393844 4.137037 45 73 80
-0.444596 -0.502623 4.222419 54 86 97
-0.887909 -2.844447 8.712479 22 42 47
-0.421197 -0.108032 4.052784 49 76 86
-0.842406 -4.123071 8.332663 116 140 146
-0.783307 -2.671135 7.780619 22 44 49
-0.839166 -4.169583 8.341186 18 40 45
-0.866912 -3.049719 8.669553 25 50 54
-0.835963 -2.847311 8.365046 81 106 110
-0.665088 -2.257030 6.630348 81 106 110
-0.863504 -3.083844 8.662370 20 44 50
-0.681821 -2.349088 6.819523 87 116 121
-0.830220 -4.168080 8.324462 123 147 153
-0.702524 -2.432241 7.036002 88 117 122
-0.695139 2.724427 6.987076 32 53 55
-0.722856 -2.541857 7.262701 84 110 116
-0.720498 -2.561044 7.255074 80 104 110
-0.854684 -3.184198 8.639149 19 38 45
-0.821886 -4.166326 8.307514 128 154 160
-0.825450 -4.107725 8.347995 149 168 173
-0.767861 -2.786566 7.768813 84 110 116
-0.851083 -3.218225 8.631028 23 45 50
-0.789253 -2.903573 8.010815 93 119 125
-0.881946 -3.382216 8.968978 23 43 48
-0.849886 -3.162885 8.650116 66 95 100
-0.845485 -3.282791 8.612153 19 38 45
-0.814021 -3.072582 8.306220 106 133 137
-0.991604 -3.912679 10.154112 21 41 46
-0.845037 -3.205443 8.635127 109 138 142
-0.842462 -3.227186 8.623903 91 120 125
-0.875945 -3.371727 8.979019 97 127 132
-0.875945 -3.371727 8.979019 97 127 132
-0.871302 -3.386457 8.951193 103 129 135
-0.935822 -3.740922 9.679575 91 116 120
-0.978932 -3.932377 10.138546 92 118 124
-0.829445 -3.400396 8.597720 72 98 104
-0.829445 -3.400396 8.597720 72 98 104
-0.971864 -3.939531 10.087692 96 122 128
-1.502042 -6.196965 15.702584 80 109 114
-1.012430 -4.161136 10.543047 80 109 114
-0.413083 0.353423 4.200877 102 134 139
-0.814885 -3.578559 8.547614 21 43 48
-1.159714 -4.974415 12.214177 91 116 120
-1.226828 -5.286074 12.938147 91 116 120
-0.811564 -3.607228 8.533553 23 45 50
-0.811564 -3.607228 8.533553 23 45 50
-0.680891 -3.058275 7.162636 26 48 53
-1.294085 -5.655344 13.701800 94 123 128
-0.874743 -3.862086 9.258122 88 113 117
-0.806441 -3.623151 8.528875 63 92 96
-0.806441 -3.623151 8.528875 63 92 96
-1.363538 -6.093383 14.513345 101 130 135
-0.801928 -3.685278 8.509181 63 92 97
-0.799867 -3.740392 8.507175 24 48 54
-0.792636 -4.047850 8.422635 55 81 87
-0.798277 -3.721629 8.507959 67 93 99
-0.402362 0.334681 4.210457 90 122 127
-0.799657 -3.594568 8.557895 29 53 59
-0.821571 -3.993201 8.826883 25 49 55
-0.883720 -4.410884 9.570407 21 45 51
-0.778471 -3.965520 8.450116 27 46 53
-0.750673 -3.770622 8.146694 74 100 106
-0.750673 -3.770622 8.146694 74 100 106
-0.525763 -2.033506 5.701731 147 177 182
-0.766946 -3.631495 8.551185 40 69 76
-0.765555 -3.662411 8.549329 40 73 82
-0.393451 0.440850 4.303323 43 65 70
-0.433663 0.736321 4.806123 75 97 103
-0.764729 -3.456409 8.620897 152 184 189
-0.757809 -3.521288 8.606355 150 182 188
-0.756673 -3.425410 8.629115 104 139 143
-0.713599 -4.167556 8.244750 127 158 167
-0.734456 -3.649729 8.565114 148 173 177
-0.381797 -0.849111 4.384881 110 128 135
-0.732232 -3.420856 8.623386 99 135 143
-0.410226 0.776932 4.812004 73 94 102
-0.711252 -3.993144 8.506501 160 189 194
-0.694497 -4.151557 8.321584 58 88 93
-0.705401 -3.416698 8.618537 86 120 126
-0.368149 -1.072139 4.551700 152 172 177
-0.342354 -0.412425 4.256198 111 143 148
-0.351254 0.839468 4.786244 72 98 105
-0.576069 2.668799 8.114432 38 60 65
-0.567936 -3.962886 8.451616 75 100 104
-0.559179 -3.971806 8.440595 141 160 163
-0.546896 2.656043 8.359759 44 69 73
-0.553890 -3.948144 8.467027 28 54 61
-0.553890 -3.948144 8.467027 28 54 61
-0.556497 -3.941099 8.512609 32 61 66
-0.549727 -3.955431 8.453171 115 137 143
-0.550831 -3.957083 8.415571 139 159 164
-0.530703 2.679269 8.352893 44 68 74
-0.525791 2.654339 8.377157 69 98 103
-0.525791 2.654339 8.377157 69 98 103
-0.527916 -4.140604 8.305387 57 89 94
-0.300069 0.663345 4.652473 60 83 91
-0.530099 -3.941952 8.472827 127 147 152
-0.524319 -3.929713 8.501705 149 181 187
-0.266895 0.275560 4.259578 102 130 137
-0.504263 -3.421451 8.609667 143 172 177
-0.498735 -3.898894 8.503281 145 171 177
-0.498166 -3.432490 8.641138 113 138 142
-0.494491 2.636220 8.900464 55 84 89
-0.488920 2.664035 8.914946 75 106 109
-0.231195 -0.062571 4.085251 74 105 120
-0.449125 -3.838269 8.497722 110 139 144
-0.434552 -3.822296 8.506236 17 37 42
-0.415848 -3.827026 8.528349 92 119 123
-0.255790 2.885683 5.260863 73 96 98
-0.412597 -3.829010 8.594856 26 38 40
-0.399902 -3.822513 8.541259 89 112 114
-0.242083 2.862233 5.469572 31 51 56
-0.379107 -3.758781 8.634969 72 84 84
-0.377368 -3.730828 8.491985 35 40 39
-0.377368 -3.730828 8.491985 35 40 39
-0.194608 0.698770 4.664867 59 87 94
-0.189447 0.651603 4.657492 102 130 137
-0.189447 0.651603 4.657492 102 130 137
-0.166985 0.718264 4.686335 100 126 132
-0.180936 2.854947 5.848989 29 51 57
-0.167203 2.863945 6.175332 50 71 73
-0.162879 2.827696 6.230246 93 120 124
-0.159935 2.803064 6.247395 42 61 64
-0.140789 2.828350 6.230956 29 49 50
-0.134508 2.768752 6.203030 39 58 61
-0.134508 2.768752 6.203030 39 58 61
-0.092267 -4.110596 8.268069 54 84 89
-0.033281 2.751122 7.521440 31 51 56
-0.048468 -7.046565 15.969325 79 84 83
-0.021614 2.753687 7.603779 84 111 115
-0.024187 2.787887 7.539884 38 57 60
-0.025961 -4.116765 8.254444 133 162 166
-0.018157 2.731782 7.628815 24 43 46
-0.005384 0.673899 4.675153 49 80 89
-0.000955 2.756880 7.621966 33 52 55
-0.005849 0.045034 4.083244 93 127 140
0.001334 2.720187 7.618458 45 66 68
0.004909 -3.792329 8.560170 253 255 255
0.020553 -3.911363 9.097005 114 118 113
0.040826 -3.799318 8.657151 85 86 84
0.035036 -1.167855 4.418609 94 113 120
0.048999 0.766432 4.712595 68 97 106
0.042256 -1.128947 4.390786 113 132 139
0.104163 2.682430 8.862691 36 65 69
0.125062 2.701898 8.872844 51 81 86
0.064388 0.216398 4.084982 49 80 89
0.062556 -0.038239 3.714375 97 124 138
0.153590 -3.775334 8.554179 87 93 92
0.192023 1.905561 9.544185 59 87 94
0.091895 0.182948 4.058081 106 142 152
0.084598 0.024228 3.702160 71 105 118
0.084598 0.024228 3.702160 71 105 118
0.121037 0.710847 4.647379 46 72 79
0.111366 0.233617 4.188336 39 66 76
0.098294 -0.045672 3.679318 88 122 135
0.098294 -0.045672 3.679318 88 122 135
0.328274 1.817166 9.434483 81 103 108
0.142797 0.036435 3.709796 54 84 95
0.147588 -0.046129 3.631519 123 152 159
0.147931 -0.053278 3.629245 32 60 77
0.198967 -0.624991 4.324292 46 77 86
0.484798 1.940060 9.365860 95 115 120
0.490621 1.929637 9.402072 21 37 43
0.200275 0.008462 3.684247 40 60 71
0.221432 0.228488 3.796629 80 110 121
0.239999 0.149345 3.685510 54 86 97
0.534441 2.744322 8.061912 35 54 59
0.250548 -0.048615 3.691905 42 62 73
0.250548 -0.048615 3.691905 42 62 73
0.280622 -0.482709 4.138640 94 125 134
0.572446 -4.062530 8.186630 115 144 149
0.601855 -4.077745 8.467972 35 54 61
0.601855 -4.077745 8.467972 35 54 61
0.588825 -4.054031 8.178601 136 165 170
0.308140 -0.789319 4.236256 84 117 126
0.602704 -4.027485 8.187231 53 75 80
0.276206 0.133676 3.678524 64 96 107
0.650735 -4.039882 8.468349 31 49 56
0.638583 -3.989884 8.100895 129 159 164
0.333354 -0.849401 4.220411 133 159 165
0.310072 0.231850 3.781772 44 73 88
0.705378 -4.015195 8.436467 6 24 31
0.692392 -3.935447 8.068777 128 157 164
0.720967 -3.892784 8.063623 72 92 97
0.379477 -0.785557 4.221153 83 116 125
0.723571 -3.913965 7.999569 123 156 165
0.723571 -3.913965 7.999569 123 156 165
0.843547 1.824799 9.124463 29 46 49
0.421301 -1.357543 4.562454 46 51 50
0.393694 -0.789413 4.215803 73 103 114
0.449981 1.944035 4.753585 39 54 57
0.869874 1.813524 9.112086 32 57 61
0.354687 0.012911 3.717936 55 89 102
0.812334 -3.839964 8.328646 108 130 135
0.412977 -0.787930 4.216435 63 97 110
0.422036 -1.024644 4.270311 59 82 90
0.824445 -3.893762 8.273557 27 33 38
0.831816 -3.839759 8.328911 110 132 137
0.831816 -3.839759 8.328911 110 132 137
0.456202 -1.323694 4.540838 38 57 60
0.436264 -0.629210 4.286102 85 112 122
0.837077 -3.889327 8.026353 134 160 166
0.480700 0.721946 4.511318 42 66 72
0.882254 -3.724355 8.298601 46 75 82
0.882254 -3.724355 8.298601 46 75 82
0.395346 -0.193639 3.644276 69 102 111
0.395346 -0.193639 3.644276 69 102 111
0.927553 -3.750006 8.348400 0 7 9
0.931579 -3.745385 8.371126 0 4 7
0.463882 -0.546552 4.133544 72 102 113
0.936054 -3.749035 8.353650 120 142 147
0.963696 -3.293049 8.452056 9 36 46
0.522305 -1.254839 4.519464 106 124 125
0.427396 -0.014156 3.678790 144 173 180
0.980338 -3.716882 8.370095 53 87 93
0.501592 -0.714818 4.243860 70 111 120
0.994398 -3.613972 8.373597 34 69 79
0.994398 -3.613972 8.373597 34 69 79
0.994398 -3.613972 8.373597 34 69 79
1.126111 1.992354 9.280833 17 30 32
1.013558 -3.474748 8.370766 155 174 179
1.014149 -3.476596 8.374264 155 174 179
1.026760 -3.357649 8.386607 136 151 153
1.029499 -3.512167 8.386916 121 142 144
1.031098 -3.426465 8.377899 144 159 161
1.030801 -3.486445 8.375293 110 138 145
1.031259 -3.441741 8.363557 139 152 154
0.448465 -0.243621 3.617794 61 94 103
1.023471 -3.852920 8.267219 81 97 103
1.042772 -3.451488 8.372841 2 14 16
1.042384 -3.448579 8.367363 2 14 16
1.033527 -3.847740 8.272568 27 46 53
1.047467 -3.458678 8.364246 108 128 129
1.040076 -3.848224 8.258049 80 96 102
0.463875 -0.180977 3.649786 66 99 108
1.057516 -3.466533 8.344114 110 135 139
1.039932 -3.877889 8.179590 30 44 50
1.065112 -3.524875 8.338850 79 101 107
1.056483 -3.834913 8.264507 37 56 63
1.056483 -3.834913 8.264507 37 56 63
0.480226 0.227969 3.734544 56 91 105
0.480113 0.165620 3.721533 117 143 150
0.480113 0.165620 3.721533 117 143 150
1.064429 -3.748322 8.288087 132 154 159
1.070058 -3.709080 8.288639 91 113 118
1.071200 -3.735342 8.280935 78 100 106
1.089020 -3.436739 8.401810 113 137 143
1.072317 -3.758126 8.283251 85 107 113
1.020726 -3.924090 7.855431 115 148 157
1.020726 -3.924090 7.855431 115 148 157
0.480009 -0.067079 3.667968 62 97 110
1.102002 -3.205822 8.413853 114 139 143
1.051792 -3.853291 8.016958 68 92 98
1.051792 -3.853291 8.016958 68 92 98
0.483056 -0.112467 3.666137 109 140 149
1.095241 -3.704347 8.308391 15 24 27
1.114006 -3.689525 8.328606 26 45 52
0.556016 -0.547028 4.131508 86 117 126
0.556016 -0.547028 4.131508 86 117 126
1.056825 -3.680267 7.857622 53 77 83
1.122952 -3.705113 8.337393 100 120 125
1.063842 -3.717936 7.858653 119 148 153
1.130304 -3.683592 8.345716 99 126 130
1.130752 -3.702831 8.327135 16 35 40
0.646108 -2.213086 4.664190 129 158 163
0.511109 -0.090504 3.660903 67 102 112
0.510413 -0.131543 3.655315 69 104 114
1.117262 -3.695524 7.896378 47 73 79
1.117262 -3.695524 7.896378 47 73 79
0.522831 -0.084946 3.664794 118 150 156
0.522831 -0.084946 3.664794 118 150 156
1.111342 -3.851240 7.820108 50 79 88
1.111342 -3.851240 7.820108 50 79 88
0.532235 0.217177 3.723167 52 81 96
0.905915 -3.360757 6.352271 122 150 157
1.210534 -3.388534 8.428111 75 104 108
1.220610 -3.609738 8.397097 107 131 137
0.607764 -0.706060 4.171586 147 170 178
1.141672 -3.717411 7.856323 112 143 152
0.535603 -0.151362 3.658088 72 108 116
0.535603 -0.151362 3.658088 72 108 116
1.230186 -3.710896 8.338633 79 101 106
1.142071 -4.424143 7.697799 55 83 90
1.171759 -3.730585 7.827588 117 146 155
0.550405 -0.201794 3.650716 63 98 108
1.207447 -3.707469 7.864797 98 124 130
0.609142 -0.068211 3.689149 33 54 62
1.449283 -3.443934 8.509394 99 131 136
1.371746 -3.866978 7.959487 43 73 84
0.671051 -0.403152 3.837559 78 111 120
0.676297 -0.399285 3.836661 140 169 176
0.675558 0.200640 3.734386 65 96 105
0.675558 0.200640 3.734386 65 96 105
1.446455 -3.904076 7.945511 113 142 149
0.706531 0.044421 3.722112 69 105 113
0.759764 -0.575546 3.874858 144 166 172
0.809413 0.743223 4.092283 70 94 100
0.761675 -0.394398 3.820755 78 111 120
0.795867 -0.504886 3.808318 74 102 113
0.853893 0.658993 3.998579 58 89 98
0.815714 -0.344349 3.778802 95 123 130
0.813741 0.233971 3.733180 65 101 109
0.879264 0.676800 4.007793 57 83 89
0.850736 0.042472 3.733713 87 120 129
0.850736 0.042472 3.733713 87 120 129
0.857003 0.125342 3.741103 67 99 112
0.859446 -0.163295 3.739606 91 120 127
0.888773 -0.433586 3.747697 87 115 122
0.898902 0.122722 3.733285 68 103 117
0.909342 -0.184486 3.727255 123 152 161
0.922589 -0.438250 3.731038 126 152 159
0.985247 0.646705 3.975450 45 72 82
0.985247 0.646705 3.975450 45 72 82
0.938560 -0.386091 3.742783 42 69 79
0.943227 0.125536 3.733025 61 94 110
0.961447 0.128186 3.730854 48 75 89
0.962754 -0.459932 3.734848 54 81 91
0.960527 -0.066033 3.715298 68 100 111
0.964928 -0.507589 3.733784 122 148 155
0.984140 0.262159 3.794052 36 66 77
0.971614 -0.060864 3.717836 126 154 161
0.979581 0.131777 3.733917 47 76 90
1.472288 -0.809265 4.782306 39 58 65
1.435056 -0.668117 4.656776 66 101 111
1.466667 -0.907931 4.663742 46 68 74
1.473899 -0.920785 4.656570 46 74 85
1.504126 -0.854072 4.697166 52 81 86
1.388197 -0.391282 4.328609 57 85 96
1.508905 -0.864175 4.694382 42 69 79
1.514589 -0.874408 4.690895 50 78 85
1.517987 -0.906783 4.695851 37 60 68
1.518333 -0.632403 4.687227 20 45 55
1.518333 -0.632403 4.687227 20 45 55
1.519449 -0.884534 4.691732 43 67 73
1.540204 -0.718497 4.731895 53 83 94
1.557504 -0.697479 4.739106 102 131 138
1.525332 -0.831355 4.608067 87 106 113
1.582816 -1.015103 4.759942 83 106 114
1.581712 -1.038498 4.742520 84 103 110
1.581251 -1.052998 4.723824 83 107 113
1.581555 -1.066498 4.706310 137 163 170
1.449346 -0.251763 4.301195 6 22 29
1.449346 -0.251763 4.301195 6 22 29
1.361493 0.270351 3.977487 39 69 80
1.548603 -0.839047 4.532503 110 127 130
1.548312 -0.871119 4.510764 160 178 185
1.564708 -0.931850 4.478311 143 162 170
1.569333 -0.904546 4.484951 107 129 135
1.570756 -0.930113 4.456428 140 162 168
1.573822 -0.917381 4.453930 99 118 125
1.574815 -0.925214 4.453619 71 97 104
1.608372 -0.667046 4.524361 77 96 103
1.637394 -1.214613 4.570840 136 158 164
1.658533 -1.111863 4.575811 78 106 113
1.607205 -0.833871 4.421875 132 151 158
1.607205 -0.833871 4.421875 132 151 158
1.605794 -0.877965 4.413125 123 150 160
1.609735 -0.881555 4.408690 80 109 118
1.614668 -0.840013 4.418493 132 154 160
1.630655 -0.677012 4.455747 89 112 120
1.619762 -0.952594 4.423293 84 111 121
1.631479 -0.837677 4.418163 46 68 74
1.643595 -0.797010 4.448347 60 78 85
1.640900 -0.936998 4.437692 58 81 89
1.638505 -0.824176 4.425788 101 120 127
1.631700 -0.855005 4.406344 56 79 87
1.683380 -1.062212 4.541070 138 163 173
1.646446 -0.836658 4.424347 42 63 71
1.684130 -1.045576 4.527113 82 105 113
1.653062 -0.822163 4.432929 45 66 74
1.669009 -0.781228 4.465281 67 86 93
1.667696 -0.744759 4.443720 85 113 120
1.712902 -1.111296 4.562002 72 105 114
1.493717 0.318401 3.954258 48 80 91
1.679034 -0.920421 4.450223 101 124 132
1.685662 -0.813594 4.460339 44 66 72
1.721472 -1.092397 4.556032 83 111 118
1.721699 -1.100874 4.555260 145 167 173
1.679790 -0.952854 4.434295 128 150 155
1.683656 -0.926732 4.442505 105 131 138
1.712037 -1.052271 4.516171 72 98 105
1.717237 -1.057043 4.516476 128 156 163
1.706140 -0.789427 4.471080 31 50 55
1.701597 -0.738742 4.457228 53 85 91
1.706812 -0.896212 4.460365 99 121 127
1.756095 -1.215835 4.589311 134 157 165
1.711190 -0.743869 4.458193 124 144 149
1.743785 -1.098191 4.547392 127 148 156
1.716393 -0.798835 4.464164 41 57 63
1.719159 -0.864871 4.467145 103 132 137
1.719159 -0.864871 4.467145 103 132 137
1.714262 -0.749523 4.450803 43 65 71
3.001786 -3.730926 7.830837 31 55 61
3.001786 -3.730926 7.830837 31 55 61
1.748734 -1.052370 4.531824 40 61 69
1.747119 -1.028372 4.511006 58 77 85
1.532521 0.266159 3.943741 58 92 105
1.727160 -0.823935 4.451750 104 126 131
1.568439 -0.005061 4.031933 33 58 68
1.777068 -1.197852 4.560326 74 105 114
1.735731 -0.828241 4.446146 64 88 94
1.542634 0.291927 3.935533 66 95 109
1.542634 0.291927 3.935533 66 95 109
1.544940 0.295819 3.935123 38 73 83
1.740388 -0.872919 4.445798 118 140 146
1.787401 -1.161093 4.573160 63 93 104
3.033641 -3.692411 7.801729 55 74 79
1.737463 -0.848105 4.441392 59 82 90
1.552096 0.536399 3.947670 60 91 100
1.749894 -0.925415 4.471688 59 78 85
1.741476 -0.842686 4.443617 41 64 72
1.560192 0.543464 3.949628 123 149 155
1.746150 -0.850288 4.425846 61 82 90
1.796318 -1.029394 4.537517 111 131 136
1.734910 -0.783820 4.376009 80 99 104
1.819934 -1.132521 4.577220 130 153 161
1.825173 -0.997376 4.580702 95 114 119
1.609814 0.734273 4.016825 115 134 141
1.609814 0.734273 4.016825 115 134 141
1.827326 -0.991246 4.578494 55 74 81
1.588396 0.535076 3.947467 70 101 110
1.749709 -0.829540 4.360811 99 120 128
3.253126 -3.626200 8.162665 26 35 38
3.253126 -3.626200 8.162665 26 35 38
1.579528 0.373998 3.921456 89 117 124
1.579528 0.373998 3.921456 89 117 124
1.839024 -0.992123 4.572964 67 89 95
3.089516 -3.616394 7.719785 48 68 73
3.086848 -3.634158 7.703637 120 139 144
1.833084 -1.027963 4.529706 48 73 83
1.857432 -1.155436 4.591781 132 156 162
1.593479 0.005621 3.922205 55 83 94
1.593479 0.005621 3.922205 55 83 94
1.596767 0.040414 3.920958 67 96 105
1.596725 0.291818 3.899886 72 98 110
1.596725 0.291818 3.899886 72 98 110
1.687270 -0.452376 4.128557 51 79 90
3.114615 -3.612046 7.679785 120 148 155
1.596681 0.235523 3.893624 87 113 125
3.082046 -3.664540 7.554348 92 118 124
1.896282 -1.171241 4.627056 81 105 111
3.120773 -3.893706 7.653327 53 82 89
1.599264 -0.083237 3.882903 76 101 111
1.883761 -1.156331 4.586678 131 153 159
1.600495 0.214574 3.879246 93 116 124
1.602937 0.046653 3.882592 85 111 117
1.606693 0.008984 3.879210 88 116 127
1.606693 0.008984 3.879210 88 116 127
1.777107 -0.802085 4.297238 152 174 180
1.895512 -1.138647 4.585637 139 158 165
1.896173 -1.093721 4.582670 56 74 81
3.109682 -4.176154 7.552417 56 81 91
1.908426 -1.116457 4.600161 31 52 60
1.901661 -1.147663 4.583078 140 161 169
1.788887 -0.807262 4.299754 73 105 118
1.908933 -1.141727 4.589671 42 76 89
1.796620 -0.841168 4.307131 79 111 124
1.909671 -1.163109 4.581890 65 97 108
1.637354 0.628742 3.907465 56 84 91
3.127005 -4.314863 7.543270 116 145 152
1.924744 -1.147750 4.593394 119 145 152
1.806389 -0.843676 4.303734 76 108 119
1.932968 -1.132545 4.601706 39 68 75
3.213448 -3.606093 7.682805 98 124 131
1.930839 -1.172728 4.587254 110 138 145
3.218909 -3.597521 7.681890 12 34 40
1.643296 0.599797 3.871117 133 157 163
3.224015 -3.593902 7.676367 114 133 140
1.819254 -0.850393 4.298990 79 112 127
1.733042 -0.559687 4.077613 63 91 102
1.953934 -1.121653 4.599250 109 135 141
1.730256 -0.603201 4.052956 76 105 114
1.718438 0.744950 4.016633 25 47 53
1.972727 -1.174444 4.630102 125 146 154
1.627344 -0.094543 3.788121 82 109 119
3.269625 -3.578184 7.672912 31 50 53
1.634583 0.315374 3.786185 90 115 125
1.706483 -0.505511 3.949038 87 113 125
1.857427 -0.839466 4.306565 133 161 168
1.639327 0.305382 3.772852 90 115 125
3.410361 -3.549785 7.902318 25 33 33
1.734586 -0.223039 3.965329 131 150 157
3.342965 -3.573359 7.653525 98 117 122
3.381259 -3.571974 7.666723 26 38 42
3.383783 -3.568036 7.646498 92 109 112
1.906477 -0.888003 4.264373 69 100 109
3.414995 -3.814716 7.603815 125 130 131
3.414995 -3.814716 7.603815 125 130 131
3.446562 -3.571481 7.651604 87 107 112
3.453478 -3.559693 7.662552 28 42 48
3.453478 -3.559693 7.662552 28 42 48
1.676865 -0.441259 3.647779 92 112 123
1.676865 -0.441259 3.647779 92 112 123
3.416916 -4.418677 7.468416 111 122 126
2.073416 1.068979 4.486321 31 43 47
2.073416 1.068979 4.486321 31 43 47
1.693241 0.301487 3.644227 65 99 112
2.076407 1.051395 4.474761 18 30 34
1.694830 0.222423 3.624678 38 66 77
1.691055 0.165455 3.613006 84 110 117
1.705477 0.220582 3.620205 56 86 97
1.719352 0.297537 3.637919 64 94 105
1.697894 0.049117 3.589607 66 98 109
1.699276 0.040830 3.588184 64 97 112
1.699276 0.040830 3.588184 64 97 112
1.690870 -0.328475 3.561033 102 127 137
1.690870 -0.328475 3.561033 102 127 137
1.720038 0.226474 3.617566 56 76 93
1.721533 0.206518 3.614591 60 90 101
1.721533 0.206518 3.614591 60 90 101
1.713749 0.058294 3.586104 63 93 104
1.732614 0.233615 3.616670 106 129 137
1.748133 0.363238 3.648628 71 100 107
2.074894 1.159371 4.321771 108 128 133
1.747611 0.264442 3.624114 63 95 106
1.726724 0.041916 3.580855 60 87 97
2.069910 1.162901 4.261731 104 124 129
1.746752 0.084014 3.585520 61 93 106
1.775674 0.332047 3.639287 123 145 151
1.767689 0.225818 3.619917 51 83 96
1.779864 0.349818 3.643503 48 77 91
1.779864 0.349818 3.643503 48 77 91
1.773455 0.241692 3.621309 129 153 159
1.787034 0.345251 3.643082 104 135 144
1.784058 0.300928 3.632311 45 73 84
1.784058 0.300928 3.632311 45 73 84
1.792228 0.352751 3.644152 42 68 82
1.792228 0.352751 3.644152 42 68 82
1.784901 0.242531 3.622060 126 152 158
1.796416 0.337643 3.638973 55 85 96
1.753114 -0.087242 3.550594 69 97 104
1.799545 0.299479 3.633733 36 62 78
1.811475 0.319757 3.640324 56 83 97
1.776342 0.002619 3.568162 73 102 111
1.814455 0.338461 3.641582 56 81 91
1.818871 0.355364 3.646772 53 82 96
1.824732 0.328939 3.641631 102 131 136
1.823951 0.311763 3.636763 98 127 136
1.762961 -0.306272 3.514610 85 117 123
1.827391 0.227400 3.618825 73 103 114
1.850505 0.410052 3.659961 99 127 134
1.844917 0.346288 3.639726 123 145 151
1.844917 0.346288 3.639726 123 145 151
1.797236 -0.091995 3.544599 67 96 105
1.853848 0.328530 3.640071 112 135 143
1.790390 -0.224270 3.514798 64 100 108
1.858571 0.319736 3.637208 44 70 86
1.868247 0.382338 3.652552 109 140 149
1.871036 0.404851 3.656841 36 62 78
2.024123 0.715167 3.961967 42 62 67
1.870900 0.374866 3.651297 55 85 96
1.864886 0.327041 3.640308 109 138 143
1.875123 0.380720 3.652685 50 84 97
1.868358 0.318054 3.636774 49 78 92
1.882510 0.317547 3.635662 53 82 97
1.858184 0.037217 3.573431 57 85 96
2.021042 0.636978 3.887007 41 64 72
1.864321 -0.441505 3.578754 83 110 120
1.864321 -0.441505 3.578754 83 110 120
1.895400 0.318328 3.631983 48 77 92
1.895400 0.318328 3.631983 48 77 92
1.850687 -0.141243 3.532730 56 85 94
1.902814 0.318291 3.630993 55 89 102
1.926923 0.448785 3.671595 127 152 156
1.915386 0.374184 3.645551 56 89 104
1.906109 0.263962 3.617944 56 90 103
1.914122 0.295440 3.627183 49 84 97
1.876340 -0.073987 3.547335 128 154 161
1.930987 0.383054 3.647316 123 151 158
1.906350 0.143503 3.593179 127 151 157
1.928343 0.293853 3.623844 117 146 155
1.932047 0.315716 3.627898 55 85 96
1.930738 0.289071 3.624168 45 77 90
1.942171 0.345792 3.636701 59 91 104
2.014153 0.513929 3.768470 10 25 28
1.912753 0.054798 3.572146 54 84 95
1.913279 0.063013 3.570782 114 142 149
1.881566 -0.215908 3.509390 63 91 102
1.905026 -0.033727 3.551201 53 84 99
1.892296 -0.150327 3.525582 63 95 106
2.187569 -0.900277 4.085885 58 85 95
1.921633 0.022393 3.565194 46 78 91
2.201615 -0.889538 4.092905 72 101 108
2.203886 -0.915511 4.094405 72 103 112
2.199322 -0.924213 4.085285 48 79 88
1.928509 0.035711 3.566607 108 136 143
2.201128 -0.944842 4.085392 49 84 94
2.204264 -0.908632 4.084632 151 171 176
1.937394 0.098628 3.576310 53 87 100
1.960474 0.298867 3.617579 105 133 140
2.200653 -1.012531 4.071779 71 100 107
2.197141 -1.027524 4.063370 71 101 106
1.981895 0.397026 3.644238 82 111 120
2.202116 -1.046555 4.057421 158 175 178
1.914473 -0.228835 3.505864 119 146 156
1.973776 0.272385 3.612894 84 114 125
1.920722 -0.252049 3.496105 58 92 105
1.950492 -0.021866 3.547769 117 139 145
1.996082 0.243667 3.628958 28 40 42
1.935891 -0.184307 3.515311 56 88 101
1.935891 -0.184307 3.515311 56 88 101
1.955128 -0.034739 3.545488 51 82 97
1.955128 -0.034739 3.545488 51 82 97
2.006465 0.320100 3.637660 18 38 43
1.925393 -0.285907 3.489820 49 85 93
1.959720 -0.023173 3.549390 89 118 125
1.948142 -0.120997 3.528500 118 140 151
1.943479 -0.156523 3.509576 108 134 141
1.967536 -0.015879 3.552684 78 104 111
1.986282 0.057741 3.582532 31 41 41
1.975089 0.002539 3.559363 20 28 27
1.944769 -0.308025 3.493247 134 153 160
2.056209 1.181486 3.686674 129 147 154
1.980612 -0.025519 3.554692 69 97 104
2.058131 1.169933 3.684037 130 149 154
2.007473 0.652558 3.592462 129 150 158
2.011708 0.648238 3.590169 61 93 104
1.964446 -0.200569 3.506398 77 111 124
1.986364 -0.380426 3.541118 9 36 46
2.265274 -1.043790 4.044762 142 164 169
1.965661 -0.290417 3.497830 88 121 130
1.966231 -0.245603 3.494514 83 113 124
1.976645 -0.259635 3.498398 29 45 51
1.989490 -0.151366 3.515903 126 146 151
1.987854 -0.190544 3.507721 119 145 151
1.990888 -0.252692 3.502004 127 146 153
2.048029 0.810946 3.590870 146 162 168
2.317537 -1.004212 4.043866 142 164 170
1.969801 -0.556314 3.327543 93 116 124
2.017559 -0.070194 3.402222 72 106 122
1.970590 -0.581471 3.320267 102 120 127
2.180253 1.148638 3.607197 131 143 147
2.180751 1.113757 3.602389 133 147 153
2.175277 1.070919 3.588964 131 149 150
2.186440 1.139499 3.603417 71 90 97
2.184407 1.127575 3.599445 69 88 95
2.177810 1.041030 3.586370 125 142 145
2.174743 0.985014 3.575937 128 147 150
1.995316 -0.626157 3.280789 91 110 118
2.201140 1.187768 3.610469 103 125 130
2.016158 -0.485357 3.308918 80 109 116
2.016158 -0.485357 3.308918 80 109 116
1.991301 -0.691621 3.261944 95 119 125
1.992916 -0.696837 3.260163 144 162 169
2.176303 0.894365 3.550781 72 94 100
2.148625 0.498379 3.477606 54 83 90
2.231534 1.140323 3.598569 61 84 92
2.221228 1.029279 3.574102 111 130 133
2.147898 0.425838 3.455584 138 159 161
2.055598 -0.443296 3.307878 139 161 167
2.024354 -0.668871 3.257197 95 117 122
2.146233 0.351706 3.442844 132 154 159
2.143260 0.318601 3.433238 134 156 161
2.196518 0.739013 3.515364 124 143 146
2.035622 -0.521190 3.257226 156 169 171
2.141540 0.258970 3.422347 134 157 159
2.140218 0.223753 3.416225 136 156 161
2.140083 0.213229 3.413019 146 165 170
2.138014 0.201538 3.409249 141 160 163
2.216431 0.835290 3.533464 60 84 90
2.151506 0.307196 3.427350 137 153 159
2.151506 0.307196 3.427350 137 153 159
2.138911 0.166818 3.404964 134 156 161
2.054485 -0.489009 3.268846 83 112 119
2.247931 1.002401 3.568123 120 137 140
2.232981 0.857771 3.540583 70 92 98
2.274436 1.194048 3.603471 102 122 127
2.256963 1.041846 3.575340 67 89 95
2.256963 1.041846 3.575340 67 89 95
2.241717 0.911694 3.550046 69 91 97
2.227260 0.792836 3.525427 118 138 139
2.241109 0.895873 3.546911 125 140 142
2.130912 0.027824 3.372197 137 156 159
2.253201 0.982014 3.563168 65 91 98
2.229250 0.748682 3.516381 64 90 96
2.247808 0.890302 3.544597 73 96 104
2.281335 1.142457 3.594743 67 86 93
2.216145 0.613894 3.486758 130 150 151
2.270172 1.004185 3.566536 123 140 143
2.295350 1.194457 3.604033 101 119 126
2.269579 0.991143 3.562032 125 140 143
2.136033 -0.046125 3.351763 71 101 106
2.136033 -0.046125 3.351763 71 101 106
2.111426 -0.290877 3.305861 56 89 98
2.128454 -0.141685 3.330341 70 99 108
2.305584 1.196167 3.602258 96 119 127
2.208867 0.442227 3.451639 128 145 148
2.110431 -0.335399 3.297928 48 87 96
2.200502 0.363509 3.435946 124 145 147
2.201137 0.336148 3.430406 122 145 147
2.117037 -0.315798 3.300231 141 163 169
2.218135 0.469757 3.456239 131 146 148
2.218135 0.469757 3.456239 131 146 148
2.204679 0.365512 3.434299 69 95 101
2.107846 -0.401042 3.283746 45 77 88
2.288477 1.004184 3.561669 127 144 147
2.288477 1.004184 3.561669 127 144 147
2.106917 -0.420494 3.279710 32 65 74
2.204441 0.339741 3.428271 78 104 111
2.204441 0.339741 3.428271 78 104 111
2.219825 0.439319 3.451318 67 96 103
2.219825 0.439319 3.451318 67 96 103
2.180023 0.132088 3.386908 124 144 149
2.167026 0.039615 3.366527 136 157 159
2.120628 -0.313898 3.292867 71 102 111
2.111759 -0.403489 3.279616 133 159 165
2.247843 0.639421 3.488589 71 95 101
2.247782 0.639434 3.488480 71 95 101
2.110769 -0.417023 3.276679 128 156 163
2.100325 -0.428299 3.257751 138 164 171
2.105505 -0.493650 3.265852 44 80 88
2.222746 0.421225 3.445988 123 142 145
2.110056 -0.434132 3.271490 132 154 159
2.195557 0.204455 3.401736 126 146 151
2.200836 0.222650 3.408011 130 151 153
2.106098 -0.465881 3.259776 134 154 159
2.098421 -0.588559 3.240390 57 86 91
2.114506 -0.439056 3.264630 139 161 167
2.127975 -0.341417 3.284960 132 152 157
2.013006 -0.512207 3.104769 148 163 166
2.166949 -0.065648 3.343005 130 150 155
2.338135 1.198429 3.600066 99 121 126
2.199072 0.125378 3.385937 71 99 106
2.096470 -0.647791 3.228529 64 88 94
2.208820 0.190092 3.398592 133 152 155
2.180486 -0.032774 3.352023 75 104 109
2.093478 -0.682378 3.218277 50 76 82
2.226028 0.308078 3.420180 78 102 108
2.192025 0.039241 3.368035 137 156 159
2.114008 -0.517011 3.247659 71 95 101
2.327408 1.074814 3.571983 66 85 92
2.162797 -0.169906 3.319979 132 147 150
2.326477 1.052409 3.569701 57 80 88
2.207432 0.135597 3.387658 75 104 109
2.207432 0.135597 3.387658 75 104 109
2.204174 0.111805 3.382245 134 154 159
2.188102 -0.005507 3.357546 136 157 159
2.296601 0.821096 3.522156 121 140 143
2.214580 0.183071 3.395940 78 107 112
2.090327 -0.727426 3.206391 49 75 82
2.098259 -0.659879 3.218276 152 165 167
2.093816 -0.685071 3.207688 152 164 168
2.124890 -0.474970 3.255297 57 88 97
2.103081 -0.636869 3.218595 73 97 103
2.331130 1.035942 3.565310 54 77 85
2.239197 0.338029 3.425471 85 107 113
2.239197 0.338029 3.425471 85 107 113
2.303805 0.826160 3.521151 73 97 103
2.303805 0.826160 3.521151 73 97 103
2.287152 0.691424 3.495545 71 95 101
2.287152 0.691424 3.495545 71 95 101
2.101847 -0.662113 3.212560 78 104 110
2.183176 -0.099673 3.335470 134 154 159
2.192233 -0.040725 3.348880 131 150 155
2.170593 -0.196290 3.315921 63 90 100
2.170593 -0.196290 3.315921 63 90 100
2.335257 1.052113 3.564002 69 88 96
2.158612 -0.274476 3.296491 126 145 148
2.185670 -0.083220 3.337249 138 158 159
2.139083 -0.422743 3.265735 73 101 108
2.139083 -0.422743 3.265735 73 101 108
2.169788 -0.213303 3.311799 71 97 103
2.173359 -0.197212 3.317016 47 76 83
2.261454 0.454236 3.446727 129 146 149
2.100228 -0.707384 3.201758 74 95 103
2.242584 0.291122 3.417027 79 108 113
2.242584 0.291122 3.417027 79 108 113
2.190529 -0.079076 3.336088 76 102 108
2.164015 -0.270603 3.295957 68 95 105
2.201766 -0.009466 3.352440 142 159 162
2.198342 -0.044762 3.345616 80 109 114
2.267307 0.457105 3.447812 71 97 103
2.207588 -0.005798 3.352968 75 104 111
2.134966 -0.526796 3.243184 63 92 97
2.226334 0.121359 3.380916 138 157 162
2.334363 0.935251 3.543341 63 85 90
2.341461 0.977428 3.552550 67 89 95
2.184486 -0.193328 3.314632 76 105 110
2.148707 -0.449210 3.258660 69 98 107
2.148707 -0.449210 3.258660 69 98 107
2.191602 -0.140426 3.322823 131 151 156
2.191531 -0.160690 3.322077 72 100 107
2.179796 -0.228051 3.303626 74 105 114
2.199880 -0.106575 3.332616 73 101 108
2.231748 0.124949 3.380274 77 105 112
2.278799 0.480538 3.450128 78 100 106
2.278799 0.480538 3.450128 78 100 106
2.278799 0.480538 3.450128 78 100 106
2.179519 -0.258107 3.300915 77 106 111
2.121580 -0.655189 3.212612 64 93 102
2.121580 -0.655189 3.212612 64 93 102
2.187269 -0.206683 3.310870 132 153 155
2.206200 -0.071122 3.339331 135 151 157
2.332791 0.849463 3.524463 124 143 148
2.156424 -0.441495 3.259286 72 101 108
2.178250 -0.289937 3.291985 50 78 85
2.265942 0.337606 3.422595 76 102 109
2.184133 -0.256347 3.297419 133 153 158
2.184133 -0.256347 3.297419 133 153 158
2.181809 -0.286304 3.293346 124 146 151
2.164591 -0.406208 3.266161 119 144 148
2.164591 -0.406208 3.266161 119 144 148
2.169419 -0.384291 3.272563 72 104 110
2.176119 -0.343044 3.281852 69 98 103
2.191939 -0.229975 3.304368 85 111 117
2.152319 -0.506847 3.244848 121 143 149
2.152944 -0.507238 3.245714 125 144 151
2.317643 0.697258 3.491638 71 95 101
2.231767 0.045321 3.362063 140 160 165
2.342009 0.853670 3.526435 77 96 104
2.342009 0.853670 3.526435 77 96 104
2.188775 -0.253688 3.296164 67 99 105
2.263404 0.263549 3.407173 73 102 107
2.187801 -0.288110 3.292879 62 91 98
2.181522 -0.338591 3.280736 134 155 157
2.384767 1.157290 3.583875 122 137 140
2.180328 -0.356808 3.274521 133 153 158
2.203758 -0.203404 3.309728 77 103 110
2.387872 1.148544 3.583050 65 84 91
2.147589 -0.587154 3.223826 112 137 141
2.147589 -0.587154 3.223826 112 137 141
2.213337 -0.148015 3.321305 136 157 159
2.149336 -0.594685 3.224162 119 141 146
2.242392 0.062756 3.362503 143 162 165
2.202393 -0.229577 3.303171 70 99 108
2.368590 0.988086 3.550407 54 80 86
2.228851 -0.050752 3.342163 75 101 107
2.296361 0.447694 3.441736 68 94 100
2.201866 -0.250282 3.299629 77 103 110
2.323930 0.639539 3.479735 66 90 96
2.394492 1.162130 3.581295 69 85 91
2.200726 -0.274282 3.291712 72 103 112
2.200726 -0.274282 3.291712 72 103 112
2.174842 -0.448721 3.252699 78 108 113
2.268253 0.200802 3.391903 78 102 108
2.149692 -0.631997 3.215090 63 92 101
2.158363 -0.572185 3.227964 67 97 108
2.158363 -0.572185 3.227964 67 97 108
2.177406 -0.440732 3.255763 82 108 114
2.231236 -0.083685 3.334375 84 110 117
2.368451 0.927085 3.535258 122 139 142
2.201786 -0.297763 3.286511 134 157 159
2.308619 0.465852 3.445032 68 94 101
2.181660 -0.439720 3.255195 134 153 160
2.181660 -0.439720 3.255195 134 153 160
2.206583 -0.272285 3.291646 127 149 154
2.206583 -0.272285 3.291646 127 149 154
2.190658 -0.390595 3.267280 78 105 115
2.176554 -0.494492 3.246449 62 89 99
2.403261 1.151435 3.581593 60 79 86
2.403261 1.151435 3.581593 60 79 86
2.290477 0.312865 3.413330 126 145 148
2.290477 0.312865 3.413330 126 145 148
2.212564 -0.249523 3.296964 74 103 110
2.212564 -0.249523 3.296964 74 103 110
2.190574 -0.401073 3.264101 78 104 110
2.375181 0.932270 3.537550 69 88 95
2.403514 1.141663 3.578575 118 135 138
2.318907 0.506822 3.453128 67 93 99
2.207009 -0.295247 3.287519 63 91 98
2.309735 0.440339 3.438199 134 149 152
2.277628 0.203634 3.390444 81 105 111
2.159369 -0.628786 3.215119 67 93 100
2.202110 -0.355188 3.277755 70 97 107
2.177114 -0.514858 3.240450 72 101 110
2.266568 0.106218 3.371926 138 158 163
2.276381 0.170063 3.385235 78 102 108
2.291945 0.296405 3.408285 77 104 108
2.164119 -0.617883 3.219033 118 142 148
2.392633 1.025289 3.555958 55 78 86
2.260425 0.052506 3.359864 69 98 103
2.280964 0.197009 3.389935 133 150 153
2.280964 0.197009 3.389935 133 150 153
2.247644 -0.040352 3.340455 71 94 102
2.391462 1.013279 3.551922 64 83 90
2.306659 0.385923 3.426821 73 99 106
2.245792 -0.056526 3.336189 84 110 116
2.245792 -0.056526 3.336189 84 110 116
2.377173 0.897765 3.529806 67 89 95
2.186081 -0.482232 3.247348 112 140 147
2.186081 -0.482232 3.247348 112 140 147
2.274462 0.132168 3.377174 130 149 154
2.181370 -0.505868 3.238937 108 136 143
2.184591 -0.496904 3.244033 121 145 151
2.403697 1.088451 3.566648 123 136 138
2.343430 0.639895 3.476647 80 100 105
2.343430 0.639895 3.476647 80 100 105
2.203951 -0.364452 3.270676 131 151 156
2.319378 0.460341 3.440780 131 148 151
2.186938 -0.487458 3.245609 55 86 95
2.266009 0.057872 3.360529 131 150 155
2.266009 0.057872 3.360529 131 150 155
2.195675 -0.436614 3.256264 74 100 106
2.195675 -0.436614 3.256264 74 100 106
2.185334 -0.502571 3.240608 61 89 96
2.185334 -0.502571 3.240608 61 89 96
2.213110 -0.326004 3.281771 68 97 104
2.213110 -0.326004 3.281771 68 97 104
2.300272 0.294469 3.408929 135 154 157
2.330639 0.516552 3.453152 77 99 104
2.330639 0.516552 3.453152 77 99 104
2.308993 0.357668 3.420246 79 103 109
2.308993 0.357668 3.420246 79 103 109
2.208379 -0.361637 3.271617 73 101 108
2.408463 1.095116 3.565892 67 86 93
2.204115 -0.394338 3.264939 130 152 158
2.186564 -0.511946 3.239265 62 89 99
2.325268 0.465560 3.442456 71 93 99
2.320621 0.426833 3.435556 76 102 109
2.320621 0.426833 3.435556 76 102 109
2.266384 0.040154 3.355697 74 100 107
2.272102 0.067795 3.363054 130 149 154
2.272102 0.067795 3.363054 130 149 154
2.270611 0.062666 3.360305 75 101 107
2.229227 -0.229978 3.298694 69 96 106
2.230932 -0.221803 3.301293 67 99 105
2.230932 -0.221803 3.301293 67 99 105
2.374396 0.817249 3.511953 116 136 141
2.199637 -0.440474 3.254372 136 156 161
2.399576 1.000708 3.547364 60 82 87
2.351298 0.628973 3.475769 128 147 150
2.311734 0.351997 3.416376 126 145 148
2.395181 0.962015 3.538915 64 83 90
2.258454 -0.050262 3.337236 83 105 111
2.204450 -0.439379 3.253897 74 102 109
2.202316 -0.458840 3.250396 71 103 109
2.204385 -0.445580 3.253003 78 105 115
2.271395 0.024153 3.350640 94 114 119
2.271395 0.024153 3.350640 94 114 119
2.236188 -0.228058 3.299412 129 149 154
2.196317 -0.503350 3.239957 61 90 99
2.253108 -0.113688 3.323333 74 102 109
2.175385 -0.640639 3.208289 121 143 148
2.176828 -0.636353 3.210754 73 100 110
2.250839 -0.132713 3.318991 133 152 157
2.180994 -0.612502 3.216230 123 143 148
2.233538 -0.255024 3.292916 68 87 92
2.287049 0.113786 3.371113 132 149 152
2.260394 -0.079271 3.329675 129 148 153
2.399778 0.924096 3.531919 124 139 142
2.201082 -0.499541 3.241052 112 136 142
2.339065 0.479624 3.441638 77 99 105
2.271502 -0.020006 3.342390 80 104 110
2.347050 0.522250 3.452119 140 155 157
2.217592 -0.397514 3.263146 68 96 103
2.187827 -0.602806 3.217264 69 96 106
2.187528 -0.607515 3.216389 69 96 106
2.402379 0.927698 3.530771 58 77 84
2.237395 -0.272848 3.289372 69 96 106
2.226573 -0.346496 3.272776 76 102 109
2.436031 1.155956 3.577941 62 81 88
2.355956 0.564780 3.460781 58 84 91
2.290942 0.095123 3.365512 86 110 116
2.290942 0.095123 3.365512 86 110 116
2.299062 0.151955 3.376638 128 149 151
2.256632 -0.150532 3.315670 130 150 155
2.221948 -0.388793 3.263935 132 151 156
2.283426 0.038749 3.353221 132 152 157
2.238155 -0.277341 3.286372 124 146 151
2.185199 -0.644051 3.208455 67 96 103
2.192631 -0.602083 3.216757 121 145 151
2.250909 -0.217362 3.301139 134 154 159
2.182814 -0.664379 3.201814 72 95 103
2.183802 -0.660088 3.202879 129 149 154
2.251759 -0.205015 3.302053 68 97 104
2.240588 -0.282677 3.285502 69 95 101
2.250254 -0.233803 3.297634 75 101 107
2.383467 0.725994 3.491693 78 98 103
2.383467 0.725994 3.491693 78 98 103
2.442553 1.145113 3.575352 57 79 85
2.306772 0.155179 3.376566 78 106 113
2.256809 -0.200508 3.303121 122 141 146
2.256809 -0.200508 3.303121 122 141 146
2.280709 -0.039684 3.337690 70 98 105
2.387546 0.738413 3.492031 120 136 142
2.233306 -0.369829 3.268030 132 154 159
2.234466 -0.363393 3.269925 131 153 159
2.368072 0.589939 3.463480 74 98 104
2.214225 -0.498605 3.239820 68 96 103
2.359190 0.522354 3.448986 66 90 96
2.369239 0.583491 3.461183 130 151 153
2.191220 -0.661644 3.202548 120 144 150
2.190538 -0.665844 3.200787 73 99 105
2.190538 -0.665844 3.200787 73 99 105
2.181685 -0.722389 3.187458 73 102 111
2.365495 0.537918 3.454003 131 150 153
2.247327 -0.290258 3.282192 80 103 111
2.263888 -0.184137 3.305113 71 97 104
2.263888 -0.184137 3.305113 71 97 104
2.448094 1.135169 3.572167 58 80 86
2.376335 0.611482 3.466119 72 96 102
2.365885 0.525617 3.449815 129 148 151
2.365885 0.525617 3.449815 129 148 151
2.357522 0.462036 3.437449 75 97 103
2.357522 0.462036 3.437449 75 97 103
2.218024 -0.508986 3.234819 66 92 104
2.208050 -0.575640 3.219957 64 94 105
2.222329 -0.496386 3.239725 129 148 155
2.222329 -0.496386 3.239725 129 148 155
2.374617 0.569944 3.458142 73 97 103
2.407106 0.786620 3.502296 135 148 150
2.212174 -0.573337 3.219449 115 141 147
2.212174 -0.573337 3.219449 115 141 147
2.291306 -0.038862 3.333956 76 100 106
2.291306 -0.038862 3.333956 76 100 106
2.202904 -0.640711 3.206077 76 97 105
2.303707 0.036996 3.351416 80 106 113
2.303707 0.036996 3.351416 80 106 113
2.380108 0.575511 3.459143 122 141 144
2.343753 0.294643 3.401193 129 148 153
2.243950 -0.405551 3.256535 134 153 156
2.289407 -0.102200 3.322460 81 105 111
2.289407 -0.102200 3.322460 81 105 111
2.219381 -0.577250 3.221062 65 94 103
2.282273 -0.152160 3.311169 73 101 108
2.432791 0.916391 3.526693 119 138 143
2.432791 0.916391 3.526693 119 138 143
2.384509 0.571537 3.456687 80 102 108
2.384509 0.571537 3.456687 80 102 108
2.206809 -0.658493 3.198120 126 148 154
2.350474 0.309610 3.405392 75 101 107
2.260524 -0.322492 3.274065 132 151 154
2.348779 0.298045 3.400443 77 99 105
2.305488 -0.018965 3.338541 68 96 103
2.305488 -0.018965 3.338541 68 96 103
2.463226 1.111277 3.564641 64 84 89
2.463226 1.111277 3.564641 64 84 89
2.231545 -0.521264 3.230550 131 147 153
2.281037 -0.195140 3.301483 78 104 110
2.269999 -0.284901 3.283512 133 154 156
2.263802 -0.318525 3.274202 77 98 106
2.221265 -0.601894 3.210864 123 147 153
2.406947 0.680555 3.478128 133 150 153
2.225951 -0.592090 3.215311 124 143 148
2.228407 -0.577358 3.218193 70 93 101
2.235856 -0.534127 3.228760 53 80 90
2.235856 -0.534127 3.228760 53 80 90
2.403268 0.641173 3.468133 74 98 104
2.320060 0.035138 3.347564 77 102 112
2.404515 0.635569 3.468535 130 149 152
2.280991 -0.230308 3.290971 137 154 157
2.227768 -0.598633 3.214681 63 89 96
2.217253 -0.660129 3.198270 119 141 147
2.295023 -0.138281 3.309902 81 107 114
2.381565 0.455842 3.433630 134 151 154
2.451652 0.963832 3.533014 121 137 143
2.451652 0.963832 3.533014 121 137 143
2.313568 -0.024402 3.334114 77 100 108
2.376164 0.412643 3.422966 75 99 105
2.388047 0.490461 3.439315 65 91 97
2.257589 -0.421116 3.251218 124 146 151
2.384254 0.460216 3.432193 77 98 106
2.422717 0.729965 3.487551 74 96 102
2.422717 0.729965 3.487551 74 96 102
2.451689 0.931160 3.528274 74 94 99
2.305660 -0.099572 3.319136 130 149 154
2.362181 0.289015 3.398624 73 102 107
2.272298 -0.336833 3.270159 78 106 113
2.276081 -0.306974 3.275113 63 92 101
2.410273 0.631608 3.465921 72 98 105
2.271834 -0.358293 3.266884 129 154 158
2.264802 -0.406858 3.255408 131 150 155
2.264802 -0.406858 3.255408 131 150 155
2.220952 -0.684773 3.192423 59 81 92
2.306590 -0.122888 3.314976 79 105 111
2.306590 -0.122888 3.314976 79 105 111
2.465376 1.012511 3.540849 60 82 88
2.290849 -0.231774 3.291527 123 147 153
2.311036 -0.096161 3.320329 68 96 103
2.487178 1.170622 3.571301 67 86 93
2.286506 -0.268314 3.282147 81 105 111
2.239402 -0.590050 3.214783 129 154 158
2.324598 -0.020122 3.335579 77 103 109
2.267443 -0.419963 3.250176 119 141 146
2.284261 -0.315133 3.273505 71 97 104
2.243449 -0.582471 3.214247 124 143 148
2.338697 0.048756 3.348891 137 156 161
2.285479 -0.315557 3.271281 68 95 105
2.229971 -0.684585 3.191129 64 90 97
2.378311 0.313741 3.402033 80 102 108
2.236344 -0.648315 3.200071 124 146 151
2.335626 0.001229 3.341141 130 152 157
2.335626 0.001229 3.341141 130 152 157
2.479441 1.032830 3.545103 65 85 90
2.338404 0.018019 3.342891 132 151 154
2.355771 0.135002 3.367002 131 148 151
2.355771 0.135002 3.367002 131 148 151
2.408169 0.500933 3.440077 70 94 100
2.408169 0.500933 3.440077 70 94 100
2.274309 -0.419082 3.247466 116 138 144
2.239956 -0.652830 3.195533 63 90 100
2.239956 -0.652830 3.195533 63 90 100
2.272639 -0.461107 3.241507 66 89 97
2.348677 0.049587 3.348327 130 150 155
2.284630 -0.406150 3.252248 120 145 149
2.299356 -0.304754 3.272072 131 150 155
2.421386 0.528993 3.444549 121 140 143
2.299056 -0.316211 3.271135 131 150 153
2.285694 -0.401593 3.250960 72 98 105
2.453772 0.759385 3.488880 125 144 147
2.337517 -0.086982 3.325456 81 104 112
2.337517 -0.086982 3.325456 81 104 112
2.408733 0.437184 3.424314 76 98 103
2.408733 0.437184 3.424314 76 98 103
2.370508 0.158259 3.369130 131 149 156
2.370508 0.158259 3.369130 131 149 156
2.243753 -0.682406 3.189061 64 90 97
2.432149 0.588692 3.455294 60 86 93
2.432149 0.588692 3.455294 60 86 93
2.381988 0.228401 3.384236 72 99 109
2.315559 -0.221186 3.290020 139 158 161
2.424823 0.533899 3.443919 75 97 103
2.457710 0.763649 3.489334 73 96 104
2.249675 -0.662293 3.193650 127 149 155
2.325922 -0.167711 3.301168 129 149 154
2.305050 -0.312187 3.271060 79 108 115
2.415238 0.432349 3.424074 127 146 149
2.383247 0.210330 3.378249 131 152 154
2.349686 -0.023010 3.330162 78 103 107
2.349686 -0.023010 3.330162 78 103 107
2.308700 -0.301642 3.272020 76 100 106
2.461125 0.749084 3.486126 122 138 144
2.321620 -0.221112 3.289286 79 101 107
2.352786 -0.013950 3.333140 73 96 104
2.361880 0.044182 3.345393 84 108 114
2.310230 -0.306028 3.269588 135 157 162
2.406281 0.367115 3.404466 78 101 109
2.419561 0.436139 3.422830 72 96 102
2.419561 0.436139 3.422830 72 96 102
2.371950 0.084964 3.352720 122 144 149
2.526816 1.159910 3.568445 63 82 90
2.312931 -0.324833 3.267084 77 103 109
2.320796 -0.280936 3.277145 74 99 109
2.280690 -0.535425 3.220398 122 144 149
2.280690 -0.535425 3.220398 122 144 149
2.479038 0.815792 3.498842 54 80 87
2.382767 0.135585 3.363784 132 151 154
2.342297 -0.127179 3.306132 74 100 106
2.342297 -0.127179 3.306132 74 100 106
2.365386 0.015058 3.337761 76 99 107
2.362825 -0.013942 3.331629 80 104 110
2.362825 -0.013942 3.331629 80 104 110
2.492623 0.890797 3.512935 128 141 143
2.324073 -0.276650 3.276608 126 146 151
2.324073 -0.276650 3.276608 126 146 151
2.385664 0.139403 3.361780 73 99 105
2.288477 -0.524274 3.225871 58 86 93
2.293460 -0.496924 3.233668 130 149 156
2.419630 0.361466 3.408681 130 147 150
2.335740 -0.210092 3.290383 75 103 110
2.291143 -0.501337 3.227433 78 102 108
2.311082 -0.378977 3.255708 130 149 154
2.353496 -0.106615 3.311558 80 106 113
2.445779 0.508066 3.437872 60 86 93
2.429267 0.396492 3.414184 81 105 111
2.499446 0.894813 3.512550 60 77 86
2.331043 -0.279684 3.275720 72 100 107
2.298991 -0.499108 3.228600 131 150 155
2.432944 0.399436 3.413924 127 148 150
2.369546 -0.040375 3.325424 74 98 104
