ply
format ascii 1.0
element vertex 1722
property float x
property float y
property float z
end_header
0.457851 0.849848 4.629788
0.457851 0.849848 4.629788
0.358137 0.326247 2.549679
0.437605 0.692314 4.104325
0.469483 0.826291 4.740905
0.381000 0.356517 2.896316
0.462066 0.707300 4.170019
0.465486 0.635822 4.323965
0.394954 0.386220 2.749607
0.493211 0.850414 4.714253
0.406972 0.359025 2.998108
0.512809 0.785250 4.833768
0.543520 3.467181 3.085764
0.513888 0.829093 4.678952
0.380777 -0.060081 2.186868
0.328351 -1.621770 2.067612
0.442024 1.637365 2.312006
0.434671 0.365203 3.027380
0.312934 -1.848833 1.835787
0.313104 -1.831901 1.825889
0.405102 0.727330 2.106943
0.412313 0.340408 2.552528
0.315278 -2.017293 1.996647
0.315278 -2.017293 1.996647
0.468337 0.942310 3.332885
0.525164 0.821873 4.685514
0.429696 0.422728 2.690635
0.535268 0.847261 4.684187
0.539971 0.805737 4.750892
0.514096 0.725147 4.087537
0.562306 0.614735 5.057915
0.538869 0.731982 4.476297
0.538869 0.731982 4.476297
0.532659 0.615946 4.285335
0.529097 0.709071 4.159884
0.568564 0.722950 4.902141
0.555433 0.797313 4.597053
0.565204 0.787998 4.783893
0.526813 0.708664 3.972421
0.526813 0.708664 3.972421
0.551677 0.546250 4.545191
0.566891 0.796034 4.692735
0.569733 0.794480 4.662735
0.479828 0.363574 2.983087
0.484257 0.364349 2.969805
0.491478 0.361728 3.000457
0.489378 0.367666 2.955553
0.590497 0.789650 4.760420
0.590497 0.789650 4.760420
0.590312 0.763436 4.649417
0.409966 -2.076220 1.980297
0.595949 0.784775 4.708864
0.603910 0.728982 4.880887
0.584915 0.758849 4.489218
0.415864 -2.047736 1.955964
0.415864 -2.047736 1.955964
0.419062 -2.054401 1.966042
0.419830 -2.039025 1.951033
0.518437 0.373002 2.956510
0.520467 0.367811 2.996198
0.527836 0.372707 2.957766
0.595212 0.739363 4.065692
0.515836 0.344851 2.570973
0.551311 0.409067 2.846392
0.648277 0.660043 4.197177
0.532431 -0.849764 1.989345
0.663081 0.662093 4.180756
0.699786 0.783241 4.469273
0.753221 0.431545 5.204469
0.626214 0.392904 3.123562
0.593842 -0.380055 2.274407
0.654696 0.398575 3.154658
0.729182 0.848126 4.282042
0.661521 0.395300 3.095864
0.635747 -2.459441 1.758568
0.736070 0.855988 4.261164
0.682636 0.402746 3.166907
0.682975 0.399806 3.153523
0.692312 0.401825 3.158551
0.792368 0.785977 4.475926
0.786834 0.608550 4.145643
0.880187 0.456957 5.227752
0.705200 0.446819 2.906568
0.721474 0.444523 2.935565
0.747681 0.408574 3.185731
0.822423 0.859811 4.356660
0.755508 0.410364 3.149836
0.853206 0.777428 4.549957
0.759479 0.410722 3.175462
0.920709 0.515888 5.096037
0.839173 0.647980 3.996471
0.785658 0.414949 3.203025
0.835889 0.681091 3.914296
0.835889 0.681091 3.914296
0.839280 0.693093 3.888983
0.817307 0.422387 3.249997
0.870633 0.650661 4.000288
0.870352 0.976482 4.152720
0.965209 0.525592 4.990352
0.815018 0.422491 3.153191
0.816508 0.421458 3.164555
0.877031 0.979658 4.163180
0.885455 0.969928 4.229202
0.884072 0.984979 4.187651
0.878206 0.683539 3.914281
0.840062 0.423748 3.235001
0.840062 0.423748 3.235001
0.849890 0.434902 3.317548
0.893128 0.972363 4.139191
0.935816 0.851996 4.462655
1.027656 0.517105 5.091480
0.919516 0.969171 4.206941
0.913761 0.937192 4.065706
1.018137 0.645428 4.881888
0.941622 0.975301 4.225458
0.934420 0.949832 4.081140
0.884109 0.446826 3.130727
0.884109 0.446826 3.130727
0.936666 0.917897 4.049425
0.903153 0.432191 3.271806
0.942851 0.980850 4.133824
0.891089 0.480499 3.039561
0.960096 0.976091 4.129727
0.928491 0.445755 3.193774
1.029106 0.813762 4.493929
0.929567 0.449346 3.180065
0.931322 0.447406 3.186764
0.937268 0.449364 3.190548
0.937268 0.449364 3.190548
0.951642 0.457710 3.184426
0.955570 0.455158 3.214048
0.957117 0.435617 3.043321
0.957117 0.435617 3.043321
0.981013 0.483277 3.254428
0.984500 0.480731 3.254728
0.993947 0.484034 3.296340
0.994417 0.479730 3.280196
1.046718 0.911529 4.117592
1.007878 0.492876 3.289553
1.036446 0.515643 3.367495
1.051749 0.515666 3.373384
1.110022 0.536281 3.799681
1.089384 0.519172 3.418754
1.104612 0.508183 3.509412
1.095037 0.521997 3.444548
1.089617 0.358859 3.219594
1.151797 0.541329 3.794399
1.121853 0.523806 3.502061
1.164750 0.510564 3.790882
1.143060 0.520647 3.572390
1.157286 0.537846 3.677489
1.157286 0.537846 3.677489
1.154162 0.527289 3.598468
1.178396 0.554376 3.818552
1.166644 0.539332 3.675783
1.164263 0.476558 3.499645
1.137703 0.364780 3.133076
1.153813 0.384520 3.157276
1.151991 0.377339 3.128722
1.151170 0.345161 3.085932
1.378523 0.339873 4.865330
1.215840 0.556527 3.781953
1.222328 0.462347 3.696511
1.230485 0.559738 3.835313
1.231513 0.561991 3.846335
1.151626 0.662016 3.328320
1.148224 0.653920 3.273003
1.283254 0.512390 4.137580
1.295229 0.477787 4.124438
1.284158 0.487060 3.972732
1.326062 0.491464 4.129007
1.208595 0.444893 3.152253
1.259361 0.483549 3.567427
1.465372 0.328245 4.885345
1.465372 0.328245 4.885345
1.330161 0.521969 4.068138
1.338453 0.515401 3.980682
1.306776 0.471833 3.687969
1.478196 0.333086 4.734687
1.352406 0.463487 3.961371
1.249623 0.453645 3.170759
1.380228 0.508276 4.163263
1.349911 0.396744 3.778233
1.643930 0.027730 5.462507
1.573548 0.231674 5.195841
1.350361 0.392533 3.773629
1.252261 0.477472 3.131702
1.358618 0.393590 3.768669
1.333464 0.472852 3.685891
1.400795 0.540282 4.085385
1.401807 0.562123 3.929905
1.303932 0.491161 3.144111
1.629902 0.335602 5.074907
1.315998 0.486101 3.123492
1.330098 0.647630 3.395008
1.363417 0.591089 3.454504
1.345340 0.592540 3.344461
1.336877 0.497620 3.130989
1.367877 0.597622 3.446361
1.366277 0.603572 3.436634
1.374315 0.439835 3.187627
1.361307 0.654645 3.373677
1.380303 0.611527 3.439861
1.607065 0.496360 4.749001
1.388187 0.485738 3.284511
1.385169 0.620406 3.430642
1.600052 0.584246 4.592740
1.621024 0.577364 4.682335
1.621024 0.577364 4.682335
1.523442 0.426569 3.848816
1.376116 0.521457 3.034637
1.420009 0.722944 3.515827
1.443315 0.607812 3.392231
1.407983 0.690815 3.273865
1.509101 0.588764 3.689422
1.434976 0.516858 3.118368
1.516345 0.626175 3.711972
1.516345 0.626175 3.711972
1.521343 0.632631 3.712962
1.454320 0.661942 3.323234
1.454320 0.661942 3.323234
1.533839 0.651125 3.677624
1.812387 0.543012 5.163025
1.579654 0.732956 4.017197
1.579346 0.552901 3.770579
1.579346 0.552901 3.770579
1.515796 0.719739 3.606975
1.494049 0.779390 3.523438
1.500353 0.684301 3.390007
1.500353 0.684301 3.390007
1.584496 0.743692 3.939996
1.523699 0.734821 3.573526
1.507707 0.686391 3.406571
1.503887 0.690267 3.387063
1.512488 0.686628 3.407601
1.604635 0.558697 3.764976
1.567810 0.652309 3.661583
1.511311 0.776880 3.485330
1.880103 0.488695 5.230990
1.591216 0.734239 3.884651
1.570160 0.660079 3.656767
1.513126 0.747797 3.441819
1.611294 0.571323 3.762857
1.608803 0.575323 3.744731
1.568235 0.663893 3.629069
2.157116 -0.005176 6.120034
2.157821 -0.012886 6.098346
1.563098 0.682987 3.591139
1.578257 0.683791 3.648804
1.576734 0.668362 3.621938
1.529526 0.425214 3.016481
1.445345 0.865673 3.133591
1.528633 0.772942 3.459634
1.532062 0.785074 3.466139
1.536956 0.756310 3.445736
1.537910 0.786127 3.491073
1.918626 0.483906 5.229061
1.581641 0.695560 3.574887
1.620410 0.795954 3.919938
1.587147 0.700564 3.599008
1.574502 0.718444 3.552471
1.644352 0.785729 4.019086
1.558115 0.442719 3.035577
1.580784 0.727956 3.554439
1.557102 0.788493 3.485938
1.675503 0.798390 4.164831
1.748021 0.866971 4.656887
1.558852 0.772415 3.460317
1.599208 0.709798 3.590998
1.573827 0.690486 3.415684
1.673861 0.757545 4.046278
1.674068 0.757347 4.046342
1.565108 0.784183 3.465410
1.667755 0.773202 4.015848
1.601062 0.728890 3.581930
1.601062 0.728890 3.581930
1.570918 0.779100 3.458440
1.582147 0.441534 3.037884
1.613162 0.740850 3.618412
1.545340 0.812144 3.340478
1.545340 0.812144 3.340478
1.532853 0.820219 3.276778
1.709302 0.934010 4.404104
1.652378 0.813211 3.920478
1.601468 0.739526 3.519992
1.641208 0.766559 3.769446
1.609992 0.746673 3.567010
1.645171 0.806266 3.838860
1.545501 0.809384 3.293215
2.291295 -2.646870 2.508182
1.621179 0.760098 3.629396
1.650124 0.765981 3.789439
1.655320 0.764652 3.765887
1.647220 0.775682 3.722094
1.617817 0.765422 3.548462
1.617817 0.765422 3.548462
1.940501 0.608038 5.066567
1.557222 0.827150 3.278385
1.651855 0.771732 3.711372
1.619164 0.750206 3.500785
1.658436 0.779950 3.684867
1.667182 0.768916 3.706968
1.635608 0.694489 3.428616
1.637730 0.780810 3.560714
1.729184 0.961637 4.300794
1.632677 0.736142 3.466799
1.912946 0.712119 4.924674
1.912946 0.712119 4.924674
1.634529 0.745729 3.479676
1.674967 0.762964 3.715006
2.276113 -2.461026 2.317934
1.574501 0.841521 3.287895
1.569294 0.829692 3.241615
1.667830 0.775473 3.689478
1.643068 0.699088 3.430636
1.643068 0.699088 3.430636
1.743140 0.977740 4.354976
1.652828 0.784052 3.593152
1.652828 0.784052 3.593152
1.751817 0.976746 4.384940
2.069637 0.421625 5.305411
2.069637 0.421625 5.305411
1.641391 0.752307 3.480579
1.695440 0.734895 3.744538
1.682436 0.770438 3.699061
1.652675 0.698555 3.437779
1.575544 0.843912 3.223588
2.007989 0.567862 5.122257
1.717128 0.818501 3.931270
1.641469 0.723473 3.393795
1.650135 0.758768 3.480553
1.651839 0.781625 3.513609
1.760492 0.980176 4.364695
1.592944 0.814162 3.244376
1.838942 -0.430656 2.754961
1.596762 0.813252 3.255991
1.665257 0.700243 3.450305
1.650209 0.725636 3.399181
1.669334 0.803247 3.602625
1.909281 0.784785 4.831050
2.042083 0.536253 5.163434
1.847198 -0.426786 2.734503
1.655568 0.731240 3.391832
1.728615 0.707995 3.755813
1.600994 0.823355 3.228192
1.677851 0.711800 3.440854
1.611871 0.820587 3.231006
1.780280 0.979988 4.320071
1.618234 0.814761 3.245856
1.784528 0.980228 4.340445
2.043546 0.577413 5.100869
1.995778 0.692104 4.957751
1.624317 0.824245 3.231541
1.687898 0.803127 3.515964
1.795500 0.964315 4.287725
1.795500 0.964315 4.287725
1.699993 0.721000 3.447447
1.803058 0.980109 4.335264
1.652020 0.793913 3.273660
1.636194 0.816291 3.240849
1.781618 0.906371 4.091490
1.803789 0.963138 4.280172
1.664663 0.805124 3.328411
1.662023 0.797901 3.291739
1.721966 0.729249 3.454535
1.907487 -0.421229 2.686600
1.745053 0.797677 3.643667
1.831103 0.988509 4.348149
1.663187 0.810424 3.248064
1.711492 0.747304 3.385347
1.827145 0.959420 4.259411
1.834999 0.980192 4.325981
1.834634 0.974434 4.306126
1.732351 0.737448 3.435622
1.726280 0.829481 3.533601
1.723191 0.733592 3.367080
1.725315 0.756603 3.393592
1.782233 0.763030 3.679906
2.251270 -2.013232 1.912384
1.936296 -0.421467 2.696139
1.727998 0.747424 3.378845
1.731085 0.826916 3.511275
1.791812 0.753977 3.706184
1.791335 0.757109 3.703474
1.855079 0.990746 4.350709
2.256523 -2.020340 1.894725
1.745525 0.739591 3.438447
1.679945 0.836537 3.212079
1.694526 0.828049 3.228486
1.869516 0.977741 4.297908
1.874033 0.986262 4.331380
1.849013 0.916429 4.105459
1.849013 0.916429 4.105459
1.849013 0.916429 4.105459
1.692386 0.834854 3.214961
1.873551 0.979862 4.300261
1.873551 0.979862 4.300261
1.696624 0.832895 3.219253
1.690089 0.846220 3.202245
1.773504 0.864156 3.607746
1.705666 0.829617 3.217819
1.887940 0.979554 4.296510
1.709691 0.830971 3.213322
1.893650 0.983791 4.315289
1.893650 0.983791 4.315289
1.773033 0.838825 3.518991
1.879733 0.939556 4.176407
1.879733 0.939556 4.176407
1.848976 0.762144 3.753901
2.030125 0.848320 4.751812
1.838727 0.780847 3.721180
1.838727 0.780847 3.721180
1.838216 0.769136 3.685592
1.877223 0.797902 3.911578
1.877223 0.797902 3.911578
1.838167 0.765686 3.676538
1.852326 0.776405 3.740480
1.855932 0.774027 3.746342
1.847042 0.761876 3.670492
1.733370 0.820081 3.213949
1.849250 0.768248 3.682967
1.861143 0.779014 3.743780
1.855695 0.788092 3.723054
1.854214 0.765400 3.676419
1.829365 0.702485 3.437065
1.874219 0.784677 3.746566
1.926872 0.968413 4.260861
1.926872 0.968413 4.260861
1.883967 0.777730 3.761033
2.049368 0.895359 4.694427
1.703453 1.320367 3.696513
1.880819 0.777246 3.707771
2.025728 0.945925 4.612864
1.928813 0.730184 3.836418
1.924364 0.800635 3.908962
1.924364 0.800635 3.908962
2.003304 0.980176 4.508614
1.921591 0.760515 3.799758
1.935293 0.794710 3.905736
1.928402 0.755045 3.812372
1.928402 0.755045 3.812372
1.963621 1.001195 4.342589
1.911493 0.782655 3.758856
1.942562 0.736077 3.827797
1.889847 0.754859 3.622830
1.907975 0.745858 3.674208
1.940474 0.814936 3.920252
2.011120 0.984978 4.490946
1.930592 0.764885 3.789334
1.930592 0.764885 3.789334
1.943297 0.835342 3.938283
1.887335 0.628691 3.358497
1.927003 0.779840 3.765114
1.886620 0.728810 3.498388
1.914929 0.797342 3.724850
1.914821 0.789005 3.712642
2.017850 0.987081 4.474491
2.024591 0.978807 4.489693
1.917325 0.790148 3.707359
1.955448 0.911130 4.053968
1.933360 0.794199 3.774254
1.961745 0.924364 4.098147
2.015548 0.991942 4.443011
1.990994 1.002951 4.339232
2.007539 1.001784 4.409962
1.956515 0.899517 4.015714
1.935700 0.788952 3.753983
1.973846 0.940024 4.150458
1.966493 0.905495 4.062625
1.934380 0.802832 3.760524
1.981530 0.963017 4.214377
1.990449 0.990080 4.294137
2.010149 1.002734 4.397374
1.995463 0.994557 4.313485
2.008337 1.009426 4.374960
2.008359 1.009488 4.374957
2.014054 1.006127 4.392143
2.000076 0.974498 4.279723
2.000076 0.974498 4.279723
1.991755 0.961545 4.222362
1.991755 0.961545 4.222362
2.004309 0.982661 4.304026
2.553028 -2.114704 2.070801
2.004307 0.989517 4.314418
2.012605 1.010436 4.379096
2.008689 0.990610 4.324881
2.012079 1.005960 4.363805
2.007497 0.990236 4.296044
2.016898 1.013327 4.364549
2.015767 1.010736 4.352885
2.019722 1.003310 4.355082
2.182249 -0.405874 2.701747
2.033998 1.262251 4.352294
2.281685 0.930866 4.903607
2.195770 1.088199 4.678564
2.018856 1.166100 4.034808
2.047740 0.917016 3.726352
2.039456 1.088268 3.929524
2.066310 0.905981 3.734601
2.072599 0.913746 3.728668
2.132641 1.241353 4.448052
2.061022 1.342187 4.293891
2.339286 -0.394841 2.709611
2.067251 0.942111 3.696229
2.056911 0.972549 3.657538
2.062518 0.971747 3.667534
2.045113 1.000088 3.634190
2.045113 1.000088 3.634190
2.055776 1.364866 4.229703
2.063365 0.983452 3.649641
2.058700 1.004846 3.624037
2.058710 1.012732 3.619720
2.053791 1.045572 3.579183
2.047508 1.064202 3.551591
2.039599 1.103467 3.514631
2.044448 1.115034 3.502324
2.171854 1.375988 4.319845
2.368937 0.970794 3.711453
2.374766 0.985543 3.695524
2.374766 0.985543 3.695524
2.388645 1.003070 3.677962
2.431733 0.968879 3.722983
2.451363 0.967777 3.729214
2.440985 0.992580 3.698522
2.466948 1.078137 3.609106
2.466948 1.078137 3.609106
2.606685 0.397825 2.917607
2.647960 1.017539 3.703028
2.702063 1.020114 3.709240
2.702063 1.020114 3.709240
2.741323 1.010033 3.727826
2.748615 1.005372 3.734208
2.724897 1.029043 3.703248
-7.754365 -2.961489 3.287122
-11.490453 -6.508180 3.619315
-11.490453 -6.508180 3.619315
-11.492335 -6.538454 3.627434
-11.485507 -6.611706 3.669663
-7.593565 -3.355826 3.311748
-7.574866 -3.347783 3.304369
-3.396067 0.615635 3.875951
-3.388574 0.613687 3.953465
-3.374471 0.617605 3.975328
-3.374802 0.608526 3.939742
-3.367633 0.614379 3.991050
-3.313464 0.621026 3.936406
-3.313464 0.621026 3.936406
-3.156691 0.602953 3.913414
-3.156691 0.602953 3.913414
-3.231386 0.544054 4.086159
-3.155523 0.597068 3.905006
-3.108536 0.617249 3.785958
-3.125705 0.593670 3.881500
-3.127790 0.600374 3.972759
-3.149594 0.572933 4.023764
-3.131104 0.588668 4.005086
-3.068905 0.615920 3.848270
-3.117331 0.580370 3.973605
-3.123253 0.576393 4.006482
-3.121510 0.570419 3.999685
-3.147308 0.547678 4.050755
-3.115196 0.569159 4.013985
-3.187508 0.503651 4.098599
-3.088395 0.551796 3.748862
-3.088395 0.551796 3.748862
-3.095221 0.570953 3.956037
-3.080907 0.548238 3.767167
-11.795227 -8.336170 7.004780
-11.795227 -8.336170 7.004780
-3.078218 0.544191 3.743242
-3.084358 0.538189 3.759380
-3.076333 0.541637 3.732797
-2.953944 0.650441 3.849328
-3.149180 0.473069 4.130116
-2.954155 0.623019 3.871087
-2.926837 0.628324 3.840366
-2.944440 0.598624 3.786733
-3.150846 0.430565 4.195345
-2.898845 0.640036 3.815457
-3.102060 0.450003 4.133735
-3.108913 0.442926 4.147917
-2.955916 0.587171 3.990560
-2.875472 0.633280 3.822912
-2.875472 0.633280 3.822912
-11.601191 -8.199805 10.432324
-3.108966 0.405940 4.175835
-3.108966 0.405940 4.175835
-3.143868 0.360295 4.196928
-11.663454 -8.275645 10.447937
-3.099936 0.395475 4.173673
-2.834422 0.621449 3.837915
-2.859840 0.577785 3.778465
-2.821326 0.594904 3.888566
-11.188385 -8.086972 10.710413
-11.188385 -8.086972 10.710413
-2.760934 0.621484 3.824779
-3.056868 0.291912 4.178995
-11.287163 -8.832807 7.736597
-2.994564 0.342129 4.142042
-3.027664 0.271749 4.179408
-3.051224 0.238082 4.214314
-11.230581 -8.934890 7.873546
-2.967623 0.266255 4.166256
-3.028536 0.184370 4.206320
-2.963294 0.176625 4.190931
-10.185088 -7.581205 12.231450
-2.773785 0.389040 4.076637
-2.756694 0.396371 4.061620
-2.729843 0.398606 4.048787
-2.729843 0.398606 4.048787
-2.735294 0.392109 4.062054
-2.720853 0.397708 4.044969
-2.720853 0.397708 4.044969
-2.722862 0.393694 4.050291
-2.722862 0.393694 4.050291
-10.637732 -8.965468 7.939667
-2.697787 0.397474 4.033650
-2.701601 0.390003 4.050545
-2.701601 0.390003 4.050545
-2.685333 0.398007 4.019606
-2.933112 0.116959 4.268296
-9.604922 -7.248899 11.893610
-2.673903 0.394265 4.019041
-9.635888 -7.343198 11.893250
-2.673017 0.384898 4.034363
-2.673017 0.384898 4.034363
-9.565539 -7.286707 12.164799
-2.656810 0.387726 4.030215
-2.654998 0.384816 4.024915
-2.635262 0.395736 4.022968
-2.638748 0.382353 4.006417
-2.625819 0.380280 4.002520
-2.625819 0.380280 4.002520
-9.630911 -7.560315 11.944583
-2.617311 0.376844 4.022088
-2.613682 0.376204 4.008609
-9.776397 -7.945949 10.882842
-2.601441 0.373266 3.988750
-2.594295 0.370825 4.014958
-9.498394 -7.571429 12.164388
-9.769456 -8.272966 9.939258
-9.780614 -8.334321 9.926156
-9.599037 -8.251871 9.967224
-9.746191 -8.460835 9.914471
-9.103930 -7.406114 12.267803
-9.495888 -8.627362 8.600323
-9.091659 -7.640516 12.356735
-2.321367 0.541705 4.348917
-2.386101 0.405830 4.059822
-8.671679 -7.235695 12.003376
-8.687577 -7.267995 11.920967
-2.245465 0.676177 4.667385
-8.689936 -7.271534 11.939158
-8.656748 -7.266751 11.963533
-2.264033 0.636790 4.743753
-2.367702 0.391466 4.020359
-2.253500 0.636533 4.724911
-8.540118 -7.296407 11.990037
-8.517805 -7.274643 11.992843
-2.215223 0.589330 4.373805
-8.708788 -7.600247 12.130670
-2.227851 0.608002 4.724036
-8.449857 -7.251043 12.068994
-2.192415 0.644884 4.662295
-2.164422 0.669725 4.606682
-2.182302 0.647863 4.650802
-2.151906 0.679585 4.580458
-2.151906 0.679585 4.580458
-2.192543 0.634526 4.673935
-2.155850 0.662160 4.607426
-4.078799 -2.482047 1.637866
-8.431450 -7.325042 12.196077
-8.417009 -7.342754 12.195892
-2.187264 0.606861 4.718506
-2.182652 0.567828 4.364418
-2.133094 0.665566 4.589844
-8.400226 -7.378903 12.242006
-2.102647 0.685356 4.558198
-2.199470 0.455983 3.910995
-2.173689 0.590045 4.741807
-2.094581 0.679929 4.561449
-2.076781 0.685036 4.546814
-2.096620 0.657386 4.571997
-2.165112 0.575241 4.752680
-8.210832 -7.358541 12.230452
-2.156545 0.563575 4.769014
-2.047803 0.692368 4.537485
-8.171906 -7.354898 12.207236
-2.147227 0.550560 4.782191
-8.135083 -7.369304 12.232618
-8.321357 -7.681288 11.986165
-8.262942 -7.658161 12.325277
-2.094441 0.536214 4.701463
-8.108035 -7.732520 11.800696
-1.930693 0.658428 4.044927
-2.040440 0.496482 4.695206
-7.974818 -7.974588 10.938797
-2.001686 0.532224 4.600690
-8.005635 -8.133835 10.330292
-7.834076 -8.137531 10.198910
-1.995413 0.441698 4.731805
-1.947584 0.494333 4.600670
-1.952246 0.481848 4.619452
-1.897164 0.462308 4.598964
-1.813720 0.509104 4.062285
-1.923280 0.399873 4.680711
-3.216092 -2.153825 1.423118
-3.177123 -1.667960 5.754048
-1.901603 0.318546 4.574718
-3.132391 -1.662986 5.896165
-1.656198 0.531779 4.247613
-1.656198 0.531779 4.247613
-1.668132 0.472953 4.416560
-1.592395 0.518790 4.295959
-1.592395 0.518790 4.295959
-1.576582 0.528556 4.255218
-2.908834 -1.789476 5.981719
-2.650924 -1.289521 7.036051
-2.852897 -1.780527 5.976888
-2.888714 -1.879180 5.761359
-2.857069 -1.869686 5.711156
-2.598799 -1.242168 7.204938
-2.782405 -1.737421 6.255145
-2.842307 -1.889962 5.768535
-1.425450 0.611666 4.064465
-2.541558 -1.207059 7.282336
-2.818952 -1.888045 5.763122
-2.817896 -1.894800 5.724682
-2.817896 -1.894800 5.724682
-2.876164 -1.996564 5.879068
-2.806915 -1.900729 5.739375
-2.806915 -1.900729 5.739375
-2.702887 -1.643120 6.376616
-2.807839 -1.910144 5.718861
-2.488238 -1.147618 7.341140
-2.823680 -1.947398 5.815952
-2.800861 -1.915259 5.693560
-2.739812 -1.769225 6.007441
-2.822833 -1.975696 5.847802
-1.386295 0.631478 4.175519
-2.804310 -1.973855 5.823696
-2.704263 -1.767268 6.055531
-2.727347 -1.816967 6.016171
-1.390381 0.570716 3.824195
-2.693890 -1.777791 6.190923
-2.618115 -1.614351 6.582132
-2.648343 -1.790936 6.160444
-2.404519 -1.189765 7.445570
-2.636477 -1.785195 6.096245
-2.579235 -1.664412 6.399764
-2.654750 -1.792224 6.733711
-2.377318 -1.204584 7.458423
-1.377652 0.528869 4.445294
-2.562627 -1.685391 6.391711
-2.562627 -1.685391 6.391711
-2.381705 -1.227661 7.456826
-2.555771 -1.699272 6.421630
-2.575131 -1.750905 6.688459
-2.447361 -1.500686 6.999710
-2.439263 -1.485697 6.993260
-2.410680 -1.411578 7.229650
-2.366869 -1.347724 7.345048
-2.366869 -1.347724 7.345048
-1.340200 0.500808 4.443667
-2.507099 -1.719518 6.640825
-1.348096 0.479067 4.472928
-2.496510 -1.724059 6.641709
-2.350757 -1.406259 7.236902
-2.468374 -1.752459 6.121085
-2.472237 -1.719972 6.626051
-2.460923 -1.712405 6.609206
-1.263131 0.595385 4.329324
-2.454478 -1.741063 6.453841
-1.209424 0.659692 4.231131
-2.336078 -1.534004 6.872365
-2.414443 -1.731199 6.476860
-2.449995 -1.920770 5.745977
-2.296073 -1.534253 6.975748
-2.309093 -1.614608 6.872085
-2.433826 -1.981207 5.825991
-2.280940 -1.595689 7.021643
-1.108858 0.743769 4.344645
-1.108858 0.743769 4.344645
-2.259894 -1.606963 6.529554
-2.178093 -1.378949 7.349395
-2.251680 -1.621773 6.892286
-2.258000 -1.636337 6.898105
-2.156002 -1.397371 7.362175
-2.284632 -1.795585 6.122266
-2.157064 -1.429290 7.292323
-2.283325 -1.806710 6.103345
-2.276230 -1.802187 6.124310
-1.173017 0.514893 4.560819
-2.112520 -1.378027 7.366216
-2.265191 -1.871285 6.094834
-5.105841 -8.005081 10.280652
-5.102721 -8.048729 10.322244
-1.144588 0.507979 4.556707
-1.144588 0.507979 4.556707
-0.921367 0.983771 4.322916
-2.178133 -1.803306 6.119451
-2.147919 -1.782399 6.145983
-0.893589 0.967452 4.112627
-2.101463 -1.672022 6.541552
-0.900258 0.952058 4.161629
-0.865154 0.931651 4.076376
-0.866745 0.922232 4.122282
-1.994192 -1.749847 6.490888
-1.962154 -1.633559 7.081301
-1.926467 -1.642519 6.876278
-1.926467 -1.642519 6.876278
-0.796914 0.957062 3.985894
-0.691414 1.148880 4.231497
-0.747244 0.963349 4.154970
-1.793290 -1.567455 6.961609
-1.793290 -1.567455 6.961609
-1.741074 -1.422916 7.332828
-1.614527 -1.391750 7.370025
-1.617108 -1.415569 7.363079
-1.581759 -1.413521 7.351374
-1.565059 -1.434023 7.329571
-0.643060 0.942026 4.599200
-0.606280 0.948080 4.571410
-0.551215 1.068709 4.184588
-1.432832 -1.543642 5.964506
-1.433304 -1.579914 5.870901
-0.548870 0.965309 4.671674
-1.398077 -1.563508 5.908302
-0.561741 0.912979 4.621569
-1.367649 -1.535379 5.977036
-0.529634 0.940842 4.469857
-1.341982 -1.528014 6.040743
-0.529633 0.914138 4.501517
-1.697343 -3.032083 1.570954
-0.457365 1.030313 4.245305
-0.500862 0.901417 4.515701
-1.219790 -1.413327 7.358970
-1.199960 -1.388630 7.370304
-0.443912 0.985613 4.312860
-0.471763 0.899142 4.481116
-0.437077 0.970169 4.361443
-0.434291 0.970093 4.414712
-1.164529 -1.387969 7.369680
-0.459407 0.881444 4.776761
-0.391221 0.814405 4.583124
-0.292194 1.143044 4.144234
-0.467059 0.392302 5.191693
-0.797588 -1.064508 7.642239
-0.332342 0.746280 4.856167
-0.430299 0.346001 5.228562
-0.807531 -1.177315 7.198145
-0.209633 1.160675 4.167875
-0.299911 0.702710 4.798953
-0.321383 0.608653 4.968995
-0.193886 1.066371 4.342411
-0.295048 0.627611 4.885490
-0.174770 1.083206 4.341549
-0.268601 0.568779 4.933315
-0.321844 0.250290 5.159537
-0.223654 0.652312 4.792040
-0.120219 1.129978 4.221582
-0.233603 0.554581 4.945437
-0.105791 1.122722 4.269496
-0.426944 -0.625937 5.505665
0.080873 1.379513 3.921926
0.134680 1.408478 4.002906
-0.186422 -1.243219 7.325684
-0.183293 -1.276590 7.217611
-0.172303 -1.235682 7.341781
0.048774 0.523227 4.835387
-0.168959 -1.275448 7.212726
-0.165471 -1.268370 7.229872
0.124864 0.911869 4.345214
-0.105207 -1.193652 6.169921
-0.152915 -1.581679 6.289287
0.172891 0.885241 4.396870
0.177956 0.764403 4.909104
0.177956 0.764403 4.909104
0.182358 0.703198 4.640749
0.206465 0.748615 5.020788
0.206465 0.748615 5.020788
0.193281 0.728726 4.688394
0.227596 0.711472 4.647012
0.236691 0.704124 4.612369
0.280244 0.802502 4.900334
0.350576 1.406083 3.926245
0.360368 1.405950 3.926823
0.350393 0.868418 4.886478
0.354129 0.814496 4.603780
0.391917 0.899756 4.896633
0.392273 0.889796 4.859761
0.403836 0.886956 4.777977
0.403836 0.886956 4.777977
0.406384 0.887918 4.771597
0.418596 0.925934 4.967359
0.418596 0.925934 4.967359
0.467146 0.956770 4.896841
0.467146 0.956770 4.896841
0.348915 -2.341352 6.928398
0.452290 0.984722 4.371291
0.476219 0.909960 4.980178
0.463308 0.988275 4.366501
0.463308 0.988275 4.366501
0.482731 0.538328 5.255574
-0.522154 -30.764357 23.487695
0.474012 0.977054 4.435915
0.517031 0.928396 4.929142
0.517031 0.928396 4.929142
0.526965 0.924445 4.930980
0.519403 -1.352464 7.214532
0.538046 0.895197 4.934739
0.522247 1.014308 4.370711
0.547838 0.921638 4.891883
0.540231 0.907127 4.713676
0.540231 0.907127 4.713676
0.534765 0.980162 4.427755
0.543606 0.668589 4.697890
0.543606 0.668589 4.697890
0.555950 0.914006 4.847102
0.535291 1.039309 4.261030
0.563296 0.897419 4.926368
0.566122 0.903250 4.900441
0.583572 0.868728 4.981434
0.583572 0.868728 4.981434
0.584761 0.883742 4.875343
0.588949 0.882751 4.935206
0.581726 0.924352 4.736488
0.614842 0.878526 4.880013
0.625574 0.875704 4.920125
0.563637 1.816565 2.624218
0.597249 1.288966 2.594152
0.597970 1.368252 2.556871
0.716255 1.053945 4.595516
0.723236 1.063659 4.580830
0.767860 0.904695 4.371167
0.821374 0.920072 4.795903
0.819052 0.981089 4.255698
0.819052 0.981089 4.255698
0.822545 1.049864 4.178936
0.849224 1.189093 4.537830
0.839855 0.982826 4.257496
0.854959 1.188495 4.548455
0.847981 0.982026 4.260177
0.847981 0.982026 4.260177
0.869915 1.190377 4.523855
0.857563 1.035992 4.197523
0.889750 1.183621 4.442958
0.910371 1.151720 4.601782
0.898307 1.184426 4.444298
0.908613 1.188802 4.462162
0.911408 1.172538 4.419907
0.927164 0.990309 4.278431
0.931173 1.194895 4.516722
0.937993 1.192872 4.564183
0.939625 1.195879 4.515233
0.951796 0.982617 4.287255
1.452460 -0.852571 6.617284
1.452460 -0.852571 6.617284
1.460472 -0.786584 6.804339
1.274706 0.475274 4.871650
1.274706 0.475274 4.871650
1.196004 0.805621 4.083638
1.351124 0.458144 4.882908
1.351124 0.458144 4.882908
1.256057 0.806963 4.302954
1.262191 0.849627 4.262114
1.369168 0.500031 4.758283
1.263336 0.811816 4.057464
1.263336 0.811816 4.057464
1.273138 0.871943 4.181516
1.304437 0.808335 4.339912
1.309558 0.794234 4.040142
1.335235 0.800571 4.282812
1.488990 0.407773 5.042536
1.334475 0.920091 4.155264
1.553628 0.373247 5.212135
1.487086 0.615606 4.839726
1.487969 0.733164 4.743889
1.503196 0.699691 4.817460
1.503196 0.699691 4.817460
1.400889 0.970971 4.195014
1.329065 1.101722 3.584193
1.344592 1.046453 3.546255
1.452329 0.998949 4.133654
1.452329 0.998949 4.133654
1.460356 0.995078 4.111512
1.929515 -0.157855 5.749738
1.507178 1.050024 4.239741
1.519981 1.042016 4.304319
1.439847 1.219096 3.876468
1.448537 1.211034 3.885233
1.534384 0.972376 4.005775
1.588069 1.043032 4.596346
1.588069 1.043032 4.596346
1.583334 1.014083 4.463078
1.604490 1.048642 4.732377
1.493003 1.142214 3.900268
1.543370 1.092138 4.243490
1.513081 1.090301 3.948750
1.470105 1.237657 3.828015
1.470943 1.239632 3.837160
1.479107 1.237776 3.824609
1.492409 1.237850 3.841801
1.573587 1.103008 4.250792
1.495054 1.232987 3.823618
1.577555 1.108510 4.253795
1.580152 1.105798 4.257622
1.534229 1.137350 3.907582
1.569265 1.126301 4.174013
1.630542 1.094202 4.654103
1.535636 1.142106 3.901635
1.639953 1.092830 4.708396
1.646273 1.082925 4.734137
1.646273 1.082925 4.734137
1.568347 1.117423 4.093957
1.635632 1.098086 4.649523
1.509944 1.236650 3.823051
1.515043 1.236656 3.814650
1.655808 1.091275 4.717786
1.555614 1.158916 3.963292
1.520198 1.238052 3.821895
1.576182 1.139325 4.054408
1.580694 1.140199 4.042898
1.529614 1.236480 3.809496
1.615046 1.117785 4.261986
1.678482 1.095878 4.681915
1.588875 1.152739 4.021754
1.595621 1.138483 4.037461
1.636748 1.098419 4.291559
1.680589 1.097054 4.662880
1.597717 1.147388 4.023973
1.581250 1.176561 3.935233
1.604162 1.142391 4.030296
1.520635 1.314057 3.683667
1.693900 1.097660 4.682179
1.586886 1.184802 3.938623
1.586886 1.184802 3.938623
1.610242 1.141776 4.030597
1.703544 1.093955 4.703237
1.578104 1.212908 3.860412
1.579397 1.205938 3.822782
1.710567 1.097795 4.669455
1.602796 1.199811 3.956028
1.622774 1.157888 4.017244
1.588004 1.210319 3.825261
1.688161 1.113214 4.442819
1.727645 1.095724 4.704091
1.726993 1.096412 4.682768
1.727533 1.097983 4.662643
1.723221 1.099775 4.614982
1.723221 1.099775 4.614982
2.485229 -0.849581 6.306832
1.518565 1.424808 3.526096
1.518565 1.424808 3.526096
1.623859 1.226890 3.875058
1.754688 1.099362 4.642050
1.764577 1.093544 4.689887
1.765171 1.098025 4.659437
1.597471 1.303753 3.672406
1.778029 1.098289 4.685272
1.751053 1.112217 4.458655
1.751053 1.112217 4.458655
1.751053 1.112217 4.458655
1.782397 1.097903 4.673974
1.776757 1.105658 4.531688
1.711652 1.124017 4.026767
1.805731 1.096120 4.704133
1.805731 1.096120 4.704133
1.805731 1.096120 4.704133
1.741808 0.546752 2.696275
1.666208 1.245315 3.880131
1.666208 1.245315 3.880131
1.667199 1.245252 3.861499
1.869178 0.996671 4.888148
1.865823 1.009117 4.873762
1.682279 1.201894 3.785913
1.683867 1.244096 3.894936
1.816264 1.100333 4.618497
1.764744 1.106200 4.073880
1.759628 1.121430 4.062834
1.759628 1.121430 4.062834
1.763327 1.114798 4.068375
1.756512 1.133513 4.052127
1.756512 1.133513 4.052127
1.882781 1.034583 4.827346
1.705998 1.253421 3.921859
1.705737 1.250000 3.891406
1.757207 1.136083 4.014395
1.757609 1.135641 4.004514
1.709355 1.245578 3.885356
1.888368 1.044177 4.813256
1.716587 1.247859 3.921919
1.811583 1.087754 4.250628
1.767860 1.135076 4.011287
1.860906 1.098797 4.666868
1.895693 1.044518 4.806241
1.717978 1.251447 3.894570
1.887002 1.064854 4.779135
1.857263 1.101118 4.620670
1.771947 1.139537 4.025534
1.884481 1.073790 4.763682
1.817540 1.087899 4.248240
1.772608 1.135171 4.004004
1.865617 1.101300 4.661127
1.865617 1.101300 4.661127
2.701648 -0.664696 6.880048
1.873846 1.095770 4.702286
1.781085 1.138014 4.032784
1.891837 1.081373 4.749864
1.828833 1.080476 4.229911
1.828833 1.080476 4.229911
1.858252 1.107234 4.534330
1.876844 1.096993 4.656911
1.878625 1.099485 4.675578
1.890980 1.089361 4.740178
1.871921 1.101737 4.612933
2.702491 -0.746451 6.530795
1.891378 1.091286 4.724730
1.891548 1.093695 4.708426
1.871533 1.103679 4.574068
1.890711 1.088620 4.683749
1.888564 1.087257 4.662040
1.838088 1.055043 4.172431
1.896714 1.091687 4.728692
1.797139 1.131885 4.037303
1.797139 1.131885 4.037303
1.875876 1.101119 4.586286
1.837265 1.081328 4.224317
1.840527 1.071991 4.209544
1.840748 1.071549 4.209530
1.866783 1.106999 4.506958
1.866386 1.106976 4.500498
1.895998 1.099514 4.715116
1.843383 1.079879 4.236749
1.892953 1.097467 4.676465
1.892169 1.095008 4.658189
1.855358 1.112915 4.408055
1.850775 1.089904 4.289218
1.829892 1.087446 4.113749
1.847189 1.095099 4.271136
1.666946 1.375666 3.537737
1.882538 1.107424 4.548741
1.857478 1.117787 4.368559
1.855234 1.117474 4.348205
1.853669 1.113842 4.324651
1.863955 1.103599 4.293354
1.838837 1.109269 4.089639
1.822040 1.116641 3.969746
1.824875 1.116504 3.990663
1.847678 1.102282 4.102314
1.828532 1.125263 4.019493
1.838940 1.108562 3.992166
1.848810 1.116876 4.083063
1.846353 1.129490 4.095164
1.819424 1.144050 3.885293
1.826852 1.138659 3.884598
1.884899 1.308618 3.991844
1.961463 1.219831 4.109587
1.982143 1.210103 4.122201
1.985015 1.214298 4.109544
1.974655 1.286856 4.069093
2.075626 1.210464 4.127970
1.982629 1.440832 3.983226
2.123785 1.250207 4.237466
2.190074 1.299326 4.384768
2.192644 1.310109 4.418283
2.331479 1.251466 4.258869
2.389929 1.206330 4.124856
2.265698 1.308217 3.636264
2.640447 1.202200 4.136862
2.655655 1.209039 4.151193
2.658367 1.219479 4.180973
2.673508 1.250988 4.266963
2.675447 1.250409 4.255857
2.678491 1.264913 4.284377
2.564335 1.264471 3.539746
2.562953 1.274716 3.554073
2.588814 1.346048 3.747248
2.638514 1.432495 3.965454
2.638514 1.432495 3.965454
-10.417541 -4.492724 3.404310
-6.557504 -1.506770 2.064934
-6.615088 -1.568740 2.070747
-6.416318 -1.400785 1.963623
-6.400868 -1.407243 1.962128
-6.437386 -1.447301 1.963061
-6.355720 -1.379976 1.912566
-6.337075 -1.372768 1.907845
-6.411022 -1.464139 1.890821
-9.503407 -4.403424 0.917855
-2.962955 1.203221 3.989938
-3.006521 1.141495 4.077343
-5.929155 -1.552288 2.005610
-3.000891 1.136910 4.091905
-2.988907 1.137219 4.078167
-2.991312 1.128077 4.111884
-2.972153 1.117413 4.126745
-4.366131 -0.116488 1.262001
-2.843362 1.178685 3.805282
-4.718437 -0.955599 6.828691
-2.803609 1.126225 4.057000
-2.803609 1.126225 4.057000
-2.799420 1.126355 4.047651
-2.774906 1.129434 4.025694
-2.768500 1.107428 4.111551
-2.737146 1.148589 3.894311
-2.737146 1.148589 3.894311
-2.741037 1.139851 3.916399
-2.727644 1.144252 3.875526
-2.735872 1.132122 3.906364
-2.771221 1.081588 4.089852
-2.774169 1.076592 4.099522
-2.812172 1.026727 4.157185
-2.812172 1.026727 4.157185
-2.777183 1.063526 4.127781
-2.769661 1.067465 4.121902
-2.753622 1.075462 4.081230
-2.793612 1.026178 4.150279
-2.793612 1.026178 4.150279
-2.834843 0.971604 4.177276
-2.622839 1.188489 3.970426
-2.630303 1.171876 4.021750
-2.624895 1.146082 4.031909
-4.446512 -1.000701 6.843933
-2.799947 0.924171 4.208321
-4.409701 -1.000459 6.843921
-2.556635 1.168096 3.995234
-2.773937 0.918012 4.185479
-2.793290 0.893409 4.212744
-2.632955 1.065343 4.121077
-2.762416 0.906853 4.187687
-2.768972 0.895986 4.197159
-2.544334 1.136795 3.932685
-2.756314 0.880537 4.198341
-2.521841 1.148491 4.003974
-2.759220 0.867269 4.198666
-10.162141 -7.402184 5.871509
-2.770286 0.853458 4.205930
-4.319037 -1.018168 6.851181
-2.784657 0.832511 4.213240
-10.086514 -7.444027 6.002907
-2.511439 1.106651 4.038799
-4.250016 -1.032389 6.856174
-2.459351 1.146778 3.993020
-4.192376 -1.045062 6.862785
-2.687376 0.834340 4.169577
-3.502596 0.086997 1.274783
-4.183972 -1.041812 6.858120
-9.807363 -7.425767 5.622817
-4.146435 -1.041929 6.860016
-4.093566 -1.055566 6.862976
-4.056306 -1.066601 6.866287
-9.474254 -7.456357 5.888754
-2.475497 0.856788 4.120090
-2.492866 0.830542 4.132921
-2.407312 0.875545 4.087224
-2.411357 0.863203 4.099171
-2.411357 0.863203 4.099171
-2.379150 0.904839 4.039366
-2.396172 0.881369 4.075721
-2.386669 0.877113 4.073709
-2.385519 0.865518 4.084434
-2.385519 0.865518 4.084434
-2.363763 0.879547 4.056170
-2.363763 0.879547 4.056170
-2.372409 0.864927 4.080693
-2.368100 0.868069 4.076245
-2.359829 0.865077 4.075224
-2.354077 0.871524 4.059006
-2.341718 0.871496 4.055353
-2.341718 0.871496 4.055353
-8.760464 -7.461219 7.616290
-2.336482 0.858272 4.070655
-2.330019 0.866209 4.059766
-3.311590 -0.203224 1.397976
-3.311590 -0.203224 1.397976
-2.319813 0.869405 4.040749
-8.806196 -7.586902 7.531571
-2.312369 0.862287 4.055779
-3.274530 -0.179028 1.366891
-3.226417 -0.116020 1.340192
-3.273198 -0.176800 1.377087
-2.315208 0.855650 4.062778
-3.309806 -0.232600 1.376973
-3.309806 -0.232600 1.376973
-3.688942 -1.116297 6.882985
-3.181416 -0.100048 1.292338
-3.168905 -0.083657 1.294859
-8.362365 -7.170232 7.408107
-8.363246 -7.171569 7.408310
-3.192150 -0.120860 1.294982
-3.150018 -0.073179 1.283616
-3.150018 -0.073179 1.283616
-3.266236 -0.222497 1.293287
-8.313589 -7.146589 7.412784
-2.286027 0.844541 3.882605
-3.168624 -0.114019 1.282150
-8.253456 -7.157459 7.468694
-8.279163 -7.192080 7.474730
-3.625585 -1.127783 6.887817
-8.418183 -7.406023 7.382698
-3.199074 -0.211241 1.257232
-8.371225 -7.416451 7.404493
-8.352280 -7.418309 7.131691
-3.197199 -0.244733 1.271394
-3.138365 -0.169914 1.255760
-7.777677 -6.206504 0.202639
-8.413727 -7.540723 7.116327
-8.261030 -7.419581 7.570094
-8.296994 -7.443311 7.171881
-8.219110 -7.414491 7.508426
-8.219110 -7.414491 7.508426
-2.180499 0.819939 4.411802
-8.207310 -7.452888 7.629654
-8.159446 -7.438537 7.653890
-8.389193 -7.627556 5.784278
-8.389193 -7.627556 5.784278
-8.048729 -7.403498 7.726994
-3.469195 -1.150761 6.896221
-3.598818 -1.015208 2.444533
-3.573619 -0.954022 2.029032
-8.222072 -7.614980 7.304790
-2.978178 -0.098792 1.289867
-2.978178 -0.098792 1.289867
-2.983899 -0.107411 1.270957
-2.971992 -0.092475 1.284749
-2.086983 0.893958 4.241411
-3.564314 -0.940851 1.892701
-8.187639 -7.601917 7.346686
-3.553305 -0.931450 1.893205
-3.557658 -0.944238 1.946849
-8.199926 -7.621872 7.255649
-2.958842 -0.087543 1.283875
-3.638117 -1.098926 2.488027
-3.546079 -0.960750 2.031077
-3.546079 -0.960750 2.031077
-3.576190 -1.034662 2.423490
-3.551943 -0.977695 2.058083
-8.163240 -7.676351 7.670136
-3.545254 -0.971970 2.038722
-2.103226 0.822287 4.425258
-3.542526 -0.965633 1.948114
-3.540599 -0.973164 1.978427
-3.531057 -0.963306 1.944476
-3.531057 -0.963306 1.944476
-3.523413 -0.953508 1.894216
-3.526607 -0.968942 1.970532
-8.215259 -7.783418 7.259476
-3.523125 -0.960932 1.902927
-3.533492 -0.974680 1.894193
-3.522680 -0.971976 1.890838
-8.125067 -7.696736 7.411872
-7.929003 -7.498513 7.698011
-3.587589 -1.123405 2.422133
-7.934583 -7.547703 7.718704
-7.967424 -7.635647 7.673863
-7.820730 -7.457831 7.729465
-8.056463 -7.782283 7.333850
-1.997309 0.916145 4.002130
-3.488416 -1.017811 1.938387
-1.956997 0.938322 4.024749
-3.540868 -1.174393 2.400139
-2.047986 0.745911 4.819029
-1.954521 0.930676 4.022384
-7.926190 -7.762434 7.423500
-2.040805 0.751159 4.802802
-3.496972 -1.132013 2.389396
-7.634746 -7.368565 7.441230
-7.596476 -7.334656 7.475935
-3.524654 -1.188544 2.375229
-7.986405 -7.903695 7.365917
-7.571420 -7.339661 7.489673
-3.267706 -1.187683 6.900429
-7.498979 -7.291994 7.524598
-1.926681 0.929217 4.001107
-7.903344 -7.863398 7.427684
-1.936495 0.917315 3.949312
-1.936495 0.917315 3.949312
-1.922618 0.930907 4.022164
-1.967054 0.835500 4.457794
-1.950753 0.834595 4.696373
-1.943363 0.901846 3.908597
-7.752848 -7.691861 7.466467
-7.752848 -7.691861 7.466467
-1.985853 0.777928 4.752882
-1.961796 0.815171 4.714400
-7.505647 -7.347756 7.496738
-2.017431 0.727080 4.790904
-7.510125 -7.355988 7.498011
-3.423367 -1.088583 1.991749
-3.483807 -1.204472 2.368667
-1.987407 0.763546 4.758627
-3.490335 -1.235231 2.466904
-7.914869 -7.970380 7.401482
-1.952304 0.811245 4.712790
-1.997002 0.736272 4.757442
-7.624508 -7.580762 7.469717
-1.902740 0.925490 3.983047
-1.902740 0.925490 3.983047
-7.652090 -7.671154 7.490644
-1.983296 0.740320 4.762030
-1.931618 0.819003 4.699184
-7.424791 -7.369623 7.581634
-1.883888 0.931756 3.968466
-1.984668 0.720905 4.786076
-1.814274 0.996085 4.225084
-1.895145 0.841760 4.681684
-1.860019 0.940858 3.970219
-7.417548 -7.487835 7.634301
-7.426363 -7.512163 7.637655
-7.410056 -7.498796 7.652206
-1.971399 0.699847 4.800468
-7.410503 -7.550518 7.666390
-1.972399 0.678790 4.813747
-1.828124 0.948732 3.952270
-1.828124 0.948732 3.952270
-1.833340 0.941356 3.949324
-1.829709 0.946480 3.949901
-7.483702 -7.655871 7.278750
-7.464872 -7.636086 7.289879
-1.965673 0.680374 4.803709
-1.839506 0.860837 4.664993
-7.723100 -8.083668 7.262160
-7.730364 -8.094983 7.263799
-1.951013 0.680779 4.780172
-1.957367 0.665374 4.813706
-7.461823 -7.725961 7.372850
-7.253250 -7.461997 7.728910
-1.811799 0.935922 3.968180
-7.301377 -7.539483 7.743604
-1.731150 1.027553 4.219484
-1.778493 0.955071 4.009140
-7.414964 -7.773589 7.434656
-1.773620 0.952519 4.003483
-7.389885 -7.770392 7.424988
-7.518967 -7.965510 7.327833
-1.715012 1.014200 4.275015
-1.784728 0.933557 3.946463
-1.784728 0.933557 3.946463
-1.768216 0.946741 3.986218
-7.370986 -7.806581 7.445706
-7.219010 -7.594593 7.685749
-7.192541 -7.569933 7.694723
-7.184503 -7.585760 7.698661
-1.901277 0.664128 4.744269
-3.303735 -1.299270 2.464672
-7.187920 -7.629220 7.730943
-7.144186 -7.582582 7.729442
-7.318191 -7.869869 7.551813
-7.087191 -7.547759 7.742811
-2.819801 -0.539379 1.459304
-1.712271 0.945361 3.969750
-7.156036 -7.807958 7.703837
-7.196918 -7.864555 7.449453
-7.277705 -7.972660 7.089321
-7.169573 -7.839034 7.456588
-7.310638 -8.057235 7.305275
-2.500579 -0.113451 1.281569
-2.500579 -0.113451 1.281569
-7.132314 -7.840371 7.478953
-1.850642 0.633699 4.724172
-7.319610 -8.140641 7.421633
-7.077622 -7.777723 7.474614
-2.939030 -1.275342 7.221154
-2.491705 -0.128022 1.284177
-1.783729 0.733635 4.529013
-7.101322 -7.798992 6.058698
-1.789354 0.697677 4.642801
-1.670181 0.939030 3.947517
-7.066135 -7.882289 7.571117
-7.140579 -7.994902 7.453862
-7.140579 -7.994902 7.453862
-7.138368 -7.959968 6.981907
-7.124118 -7.963305 6.974976
-6.995263 -7.821085 6.221222
-1.769453 0.646408 4.653769
-1.620138 0.910449 4.183295
-1.595920 0.958871 4.050354
-1.595920 0.958871 4.050354
-1.597813 0.942020 4.009974
-1.574619 0.929130 4.003249
-1.576968 0.923246 4.012688
-1.721518 0.633190 4.628831
-1.551001 0.954853 3.978837
-1.536546 0.955878 3.972116
-1.532552 0.953921 4.008473
-1.534451 0.950719 4.007236
-1.513804 0.935757 3.932166
-2.530213 -1.342166 7.286502
-2.530213 -1.342166 7.286502
-1.553972 0.682557 3.533580
-1.434222 0.786569 4.392631
-2.001342 0.022092 1.302859
-1.418293 0.810529 4.360887
-1.352588 0.952217 4.031582
-1.394062 0.890717 3.871064
-1.309030 0.952955 4.105926
-1.309183 0.959717 3.998686
-1.320596 0.892040 4.303813
-1.276244 0.989071 3.992781
-2.016424 -0.172151 1.290138
-2.008527 -0.169223 1.287266
-1.263055 0.969882 4.146158
-1.235787 1.016152 4.043657
-1.242069 1.000630 4.072142
-1.266770 0.934613 4.286977
-1.240128 0.999818 4.098195
-1.246367 0.995328 3.990986
-1.246367 0.995328 3.990986
-1.242409 0.986342 3.942611
-1.249711 0.932487 4.268277
-1.218348 1.006820 4.086324
-1.211888 1.010782 3.984545
-1.245424 0.914454 4.337301
-1.190003 1.025653 4.092795
-1.220598 0.951944 4.229785
-2.483194 -1.744065 6.972274
-2.542591 -1.681722 4.961148
-2.416769 -1.191275 1.973264
-1.188533 0.973268 4.204771
-1.164315 1.040749 4.021214
-2.458603 -1.678938 5.943859
-1.181273 0.984919 3.924600
-2.401531 -1.640322 6.201719
-1.231986 0.819007 4.435983
-1.231986 0.819007 4.435983
-2.470132 -1.674544 4.932385
-2.512286 -1.781221 5.109308
-1.160101 0.974753 4.046063
-1.160101 0.974753 4.046063
-2.467022 -1.703857 5.005741
-2.298769 -1.086324 1.917256
-2.410536 -1.711000 6.180030
-2.406494 -1.700730 6.121252
-2.184834 -1.360604 7.123916
-1.170720 0.908076 4.313180
-1.247863 0.712110 4.533706
-1.228780 0.733038 4.518045
-1.130016 0.974401 4.033137
-2.355995 -1.704407 6.202608
-2.414929 -1.851798 6.593755
-1.123551 0.958953 4.271531
-2.418328 -1.728137 5.013388
-2.418328 -1.728137 5.013388
-1.118080 0.983732 3.972359
-2.396956 -1.738968 5.442199
-2.396956 -1.738968 5.442199
-2.426118 -1.767252 5.035934
-2.025610 -0.674820 1.908078
-2.372352 -1.714054 5.506455
-1.119718 0.959966 3.902084
-1.119440 0.965500 3.845519
-1.111088 0.974745 3.908147
-2.216736 -1.102516 1.928392
-2.363103 -1.728405 5.327720
-2.207206 -1.114277 1.920267
-2.199537 -1.104506 1.914052
-1.087040 0.987793 3.925101
-2.392813 -1.843244 5.450030
-2.411867 -1.895690 5.493234
-1.058369 1.004542 4.174628
-2.288720 -1.737566 6.241402
-1.138239 0.809915 4.461806
-1.068084 0.988696 4.129395
-2.203293 -1.163893 1.944776
-1.057961 1.001605 3.993206
-2.326099 -1.759312 4.992599
-2.167976 -1.147928 1.901845
-2.191303 -1.205873 2.000783
-2.186969 -1.211919 1.920230
-2.246587 -1.772050 6.353826
-2.179536 -1.219212 2.009989
-2.183215 -1.227785 1.988120
-1.007910 0.998157 4.266934
-2.221718 -1.789796 6.359221
-2.256527 -1.815049 5.844961
-2.256527 -1.815049 5.844961
-2.248936 -1.841206 6.111462
-2.267773 -1.845779 5.430116
-2.250293 -1.875211 6.080158
-0.969364 1.022340 4.279050
-2.181179 -1.810738 6.412739
-2.215587 -1.874805 6.206026
-2.215587 -1.874805 6.206026
-0.999559 0.912090 4.541575
-2.193594 -1.825486 5.761953
-0.909284 1.129885 3.998694
-2.197010 -1.880951 5.801694
-0.890718 1.113881 3.976780
-0.861545 1.158431 4.144029
-0.940079 0.983105 3.772529
-2.099630 -1.749501 4.989909
-2.095581 -1.746385 4.969598
-0.933994 0.986901 3.780758
-1.556330 -0.175826 1.305403
-0.840857 1.159614 4.038220
-2.048101 -1.830632 6.573155
-2.128573 -1.943811 5.832473
-0.839228 1.159618 4.024550
-1.559175 -0.211101 1.294464
-1.559175 -0.211101 1.294464
-0.832318 1.164462 3.973099
-0.770888 1.264941 4.348725
-2.079647 -1.908780 6.213833
-2.059035 -1.888211 6.086972
-0.802873 1.142414 4.468805
-0.757670 1.253959 4.344926
-0.762677 1.174839 4.388197
-0.795373 1.143840 3.896675
-0.750682 1.156969 4.695815
-1.995302 -1.937359 6.222752
-1.997811 -1.944318 6.223626
-0.770992 1.132417 4.421292
-1.999741 -1.977516 6.172395
-0.732019 1.166638 4.737929
-0.759921 1.131009 4.419650
-1.953492 -1.834844 5.401730
-0.775033 1.130129 3.929699
-1.977771 -1.907781 5.452009
-0.769222 1.132076 3.904155
-1.840479 -1.237345 1.923843
-0.701085 1.244257 4.237106
-0.720343 1.136103 4.687457
-0.702279 1.214439 4.313504
-0.700641 1.217217 4.314378
-1.936758 -1.980677 6.190424
-0.733839 1.115740 4.095899
-0.739752 1.108054 3.991015
-0.684049 1.215368 4.250534
-1.898494 -1.985355 6.177351
-0.730265 1.107898 3.998699
-0.615599 1.256320 4.620769
-0.660594 1.146284 4.471749
-1.800774 -1.950795 6.215146
-0.648455 1.161385 4.147638
-0.609443 1.210904 4.384260
-0.609443 1.210904 4.384260
-0.597028 1.245473 4.314897
-0.603520 1.218705 4.367869
-0.641343 1.152979 4.047767
-0.623440 1.147698 4.478544
-1.660344 -1.257664 1.930801
-0.615704 1.135418 4.502958
-0.607052 1.149983 4.482818
-0.587403 1.190113 4.456950
-0.612104 1.169222 4.057316
-0.586052 1.185843 4.129200
-0.586052 1.185843 4.129200
-0.542751 1.267729 4.314814
-1.674997 -2.018603 6.194369
-0.520292 1.296563 4.360718
-0.577153 1.185136 3.986276
-1.370511 -0.759367 1.928144
-0.502319 1.301298 4.339541
-0.554853 1.197820 3.978855
-0.500635 1.289363 4.377429
-0.501211 1.280916 4.304828
-0.502803 1.278126 4.291016
-0.507224 1.233317 4.536415
-0.543034 1.203280 3.936016
-0.543034 1.203280 3.936016
-0.543034 1.203280 3.936016
-0.438123 1.516705 3.718003
-0.437261 1.505699 3.743965
-0.437261 1.505699 3.743965
-1.597141 -2.023720 6.201845
-0.580158 0.957619 4.840457
-0.580472 0.937663 4.869334
-0.580472 0.937663 4.869334
-0.521619 1.215552 3.890298
-0.514366 1.216535 3.948292
-0.514366 1.216535 3.948292
-1.552536 -1.982296 6.239944
-1.560623 -2.018782 6.226369
-0.422089 1.494930 3.595279
-0.447726 1.332171 4.299582
-1.539904 -2.001715 6.176677
-0.449543 1.365836 3.802155
-0.490355 1.227697 3.896108
-0.489497 1.223400 3.949176
-0.980671 0.096832 1.527763
-1.506225 -1.999086 6.189111
-0.478271 1.212524 4.038118
-0.394970 1.495420 3.670040
-0.387211 1.508256 3.636403
-0.529436 0.895384 4.871078
-0.374930 1.489811 3.645462
-0.515581 0.899442 4.884916
-0.364189 1.502576 3.553481
-0.497133 0.913569 4.947046
-1.424808 -1.987152 5.760542
-0.481663 0.952429 4.749302
-0.407300 1.192724 4.550712
-0.913154 0.048867 1.351711
-0.913154 0.048867 1.351711
-1.400881 -2.034831 6.148461
-0.410573 1.258741 3.849597
-1.070385 -0.459439 1.526400
-1.060516 -0.446537 1.497434
-1.060516 -0.446537 1.497434
-0.467968 0.956650 4.773297
-1.028376 -0.418600 1.488754
-1.038207 -0.446173 1.495886
-0.404076 1.094553 4.634043
-0.354183 1.351650 3.825205
-1.030264 -0.468980 1.493998
-0.294128 1.471553 4.238008
-0.439218 0.945769 4.765802
-0.444024 0.926400 4.779354
-0.358863 1.290932 3.845759
-0.966159 -0.312255 1.445599
-0.383824 1.080673 4.633347
-0.273137 1.429261 4.403706
-1.247454 -2.051112 6.213133
-0.279469 1.437934 3.791475
-1.237810 -2.051652 6.195654
-0.198167 1.692750 3.502718
-0.198167 1.692750 3.502718
-1.195670 -2.023755 6.236910
-0.253396 1.438108 3.894291
-0.251639 1.453361 3.807931
-1.180091 -2.012070 6.258298
